ply
format ascii 1.0
comment VCGLIB generated
element vertex 1661
property float x
property float y
property float z
element face 0
property list uchar int vertex_indices
end_header
-0.0211537 0.128495 0.0138889 
-0.0272259 0.127527 -0.00611111 
-0.0269367 0.127573 -0.00388889 
-0.0263584 0.127665 -0.00277778 
-0.0260693 0.127712 -0.000555555 
-0.025491 0.127804 0.000555556 
-0.0252018 0.12785 0.00277778 
-0.0246235 0.127942 0.00388889 
-0.0243344 0.127988 0.00611111 
-0.0237561 0.12808 0.00722222 
-0.0234669 0.128127 0.00944445 
-0.0228886 0.128219 0.0105556 
-0.0225995 0.128265 0.0127778 
-0.0220212 0.128357 0.0138889 
-0.0272259 0.127527 -0.00277778 
-0.0269367 0.127573 -0.000555555 
-0.0263584 0.127665 0.000555556 
-0.0260693 0.127712 0.00277778 
-0.025491 0.127804 0.00388889 
-0.0252018 0.12785 0.00611111 
-0.0246235 0.127942 0.00722222 
-0.0243344 0.127988 0.00944444 
-0.0237561 0.12808 0.0105556 
-0.0234669 0.128127 0.0127778 
-0.0228886 0.128219 0.0138889 
-0.0272259 0.127527 0.000555556 
-0.0269367 0.127573 0.00277778 
-0.0263584 0.127665 0.00388889 
-0.0260693 0.127712 0.00611111 
-0.025491 0.127804 0.00722222 
-0.0252018 0.12785 0.00944445 
-0.0246235 0.127942 0.0105556 
-0.0243344 0.127988 0.0127778 
-0.0237561 0.12808 0.0138889 
-0.0272259 0.127527 0.00388889 
-0.0269367 0.127573 0.00611111 
-0.0263584 0.127665 0.00722222 
-0.0260693 0.127712 0.00944444 
-0.025491 0.127804 0.0105556 
-0.0252018 0.12785 0.0127778 
-0.0246235 0.127942 0.0138889 
-0.0272259 0.127527 0.00722222 
-0.0269367 0.127573 0.00944445 
-0.0263584 0.127665 0.0105556 
-0.0260693 0.127712 0.0127778 
-0.025491 0.127804 0.0138889 
-0.0272259 0.127527 0.0105556 
-0.0269367 0.127573 0.0127778 
-0.0263584 0.127665 0.0138889 
-0.0272259 0.127527 0.0138889 
-0.0423682 0.123904 -0.014 
-0.0418594 0.124042 -0.013 
-0.041605 0.12411 -0.014 
-0.0410962 0.124247 -0.013 
-0.0408418 0.124316 -0.014 
-0.040333 0.124453 -0.013 
-0.0400786 0.124522 -0.014 
-0.0395698 0.124659 -0.013 
-0.0393154 0.124728 -0.014 
-0.0388066 0.124865 -0.013 
-0.0385522 0.124934 -0.014 
-0.0380434 0.125071 -0.013 
-0.037789 0.12514 -0.014 
-0.0372802 0.125277 -0.013 
-0.0370258 0.125346 -0.014 
-0.036517 0.125483 -0.013 
-0.0362626 0.125551 -0.014 
-0.0357538 0.125689 -0.013 
-0.0354994 0.125757 -0.014 
-0.041605 0.12411 -0.011 
-0.0410962 0.124247 -0.01 
-0.0408418 0.124316 -0.011 
-0.040333 0.124453 -0.01 
-0.0400786 0.124522 -0.011 
-0.0395698 0.124659 -0.01 
-0.0393154 0.124728 -0.011 
-0.0388066 0.124865 -0.01 
-0.0385522 0.124934 -0.011 
-0.0380434 0.125071 -0.01 
-0.037789 0.12514 -0.011 
-0.0372802 0.125277 -0.01 
-0.0370258 0.125346 -0.011 
-0.036517 0.125483 -0.01 
-0.0362626 0.125551 -0.011 
-0.0357538 0.125689 -0.01 
-0.0354994 0.125757 -0.011 
-0.0408418 0.124316 -0.008 
-0.040333 0.124453 -0.007 
-0.0400786 0.124522 -0.008 
-0.0395698 0.124659 -0.007 
-0.0393154 0.124728 -0.008 
-0.0388066 0.124865 -0.007 
-0.0385522 0.124934 -0.008 
-0.0380434 0.125071 -0.007 
-0.037789 0.12514 -0.008 
-0.0372802 0.125277 -0.007 
-0.0370258 0.125346 -0.008 
-0.036517 0.125483 -0.007 
-0.0362626 0.125551 -0.008 
-0.0357538 0.125689 -0.007 
-0.0354994 0.125757 -0.008 
-0.0400786 0.124522 -0.005 
-0.0395698 0.124659 -0.004 
-0.0393154 0.124728 -0.005 
-0.0388066 0.124865 -0.004 
-0.0385522 0.124934 -0.005 
-0.0380434 0.125071 -0.004 
-0.037789 0.12514 -0.005 
-0.0372802 0.125277 -0.004 
-0.0370258 0.125346 -0.005 
-0.036517 0.125483 -0.004 
-0.0362626 0.125551 -0.005 
-0.0357538 0.125689 -0.004 
-0.0354994 0.125757 -0.005 
-0.0393154 0.124728 -0.002 
-0.0388066 0.124865 -0.001 
-0.0385522 0.124934 -0.002 
-0.0380434 0.125071 -0.001 
-0.037789 0.12514 -0.002 
-0.0372802 0.125277 -0.001 
-0.0370258 0.125346 -0.002 
-0.036517 0.125483 -0.001 
-0.0362626 0.125551 -0.002 
-0.0357538 0.125689 -0.001 
-0.0354994 0.125757 -0.002 
-0.0385522 0.124934 0.001 
-0.0380434 0.125071 0.002 
-0.037789 0.12514 0.001 
-0.0372802 0.125277 0.002 
-0.0370258 0.125346 0.001 
-0.036517 0.125483 0.002 
-0.0362626 0.125551 0.001 
-0.0357538 0.125689 0.002 
-0.0354994 0.125757 0.001 
-0.037789 0.12514 0.004 
-0.0372802 0.125277 0.005 
-0.0370258 0.125346 0.004 
-0.036517 0.125483 0.005 
-0.0362626 0.125551 0.004 
-0.0357538 0.125689 0.005 
-0.0354994 0.125757 0.004 
-0.0370258 0.125346 0.007 
-0.036517 0.125483 0.008 
-0.0362626 0.125551 0.007 
-0.0357538 0.125689 0.008 
-0.0354994 0.125757 0.007 
-0.0362626 0.125551 0.01 
-0.0357538 0.125689 0.011 
-0.0354994 0.125757 0.01 
-0.0354994 0.125757 0.013 
-0.0349873 0.125881 -0.013 
-0.0347297 0.125936 -0.011 
-0.0342143 0.126047 -0.01 
-0.0339567 0.126102 -0.008 
-0.0334413 0.126212 -0.007 
-0.0331837 0.126267 -0.005 
-0.0326683 0.126378 -0.004 
-0.0324107 0.126433 -0.002 
-0.0318953 0.126543 -0.001 
-0.0316377 0.126598 0.001 
-0.0311223 0.126709 0.002 
-0.0308647 0.126764 0.004 
-0.0303493 0.126874 0.005 
-0.0300917 0.126929 0.007 
-0.0295763 0.12704 0.008 
-0.0293187 0.127095 0.01 
-0.0288033 0.127205 0.011 
-0.0285457 0.12726 0.013 
-0.0280303 0.127371 0.014 
-0.0349873 0.125881 -0.01 
-0.0347297 0.125936 -0.008 
-0.0342143 0.126047 -0.007 
-0.0339567 0.126102 -0.005 
-0.0334413 0.126212 -0.004 
-0.0331837 0.126267 -0.002 
-0.0326683 0.126378 -0.001 
-0.0324107 0.126433 0.001 
-0.0318953 0.126543 0.002 
-0.0316377 0.126598 0.004 
-0.0311223 0.126709 0.005 
-0.0308647 0.126764 0.007 
-0.0303493 0.126874 0.008 
-0.0300917 0.126929 0.01 
-0.0295763 0.12704 0.011 
-0.0293187 0.127095 0.013 
-0.0288033 0.127205 0.014 
-0.0349873 0.125881 -0.007 
-0.0347297 0.125936 -0.005 
-0.0342143 0.126047 -0.004 
-0.0339567 0.126102 -0.002 
-0.0334413 0.126212 -0.001 
-0.0331837 0.126267 0.001 
-0.0326683 0.126378 0.002 
-0.0324107 0.126433 0.004 
-0.0318953 0.126543 0.005 
-0.0316377 0.126598 0.007 
-0.0311223 0.126709 0.008 
-0.0308647 0.126764 0.01 
-0.0303493 0.126874 0.011 
-0.0300917 0.126929 0.013 
-0.0295763 0.12704 0.014 
-0.0349873 0.125881 -0.004 
-0.0347297 0.125936 -0.002 
-0.0342143 0.126047 -0.001 
-0.0339567 0.126102 0.001 
-0.0334413 0.126212 0.002 
-0.0331837 0.126267 0.004 
-0.0326683 0.126378 0.005 
-0.0324107 0.126433 0.007 
-0.0318953 0.126543 0.008 
-0.0316377 0.126598 0.01 
-0.0311223 0.126709 0.011 
-0.0308647 0.126764 0.013 
-0.0303493 0.126874 0.014 
-0.0349873 0.125881 -0.001 
-0.0347297 0.125936 0.001 
-0.0342143 0.126047 0.002 
-0.0339567 0.126102 0.004 
-0.0334413 0.126212 0.005 
-0.0331837 0.126267 0.007 
-0.0326683 0.126378 0.008 
-0.0324107 0.126433 0.01 
-0.0318953 0.126543 0.011 
-0.0316377 0.126598 0.013 
-0.0311223 0.126709 0.014 
-0.0349873 0.125881 0.002 
-0.0347297 0.125936 0.004 
-0.0342143 0.126047 0.005 
-0.0339567 0.126102 0.007 
-0.0334413 0.126212 0.008 
-0.0331837 0.126267 0.01 
-0.0326683 0.126378 0.011 
-0.0324107 0.126433 0.013 
-0.0318953 0.126543 0.014 
-0.0349873 0.125881 0.005 
-0.0347297 0.125936 0.007 
-0.0342143 0.126047 0.008 
-0.0339567 0.126102 0.01 
-0.0334413 0.126212 0.011 
-0.0331837 0.126267 0.013 
-0.0326683 0.126378 0.014 
-0.0349873 0.125881 0.008 
-0.0347297 0.125936 0.01 
-0.0342143 0.126047 0.011 
-0.0339567 0.126102 0.013 
-0.0334413 0.126212 0.014 
-0.0349873 0.125881 0.011 
-0.0347297 0.125936 0.013 
-0.0342143 0.126047 0.014 
-0.0349873 0.125881 0.014 
-0.0498344 0.121491 -0.0138889 
-0.0492778 0.121673 -0.0127778 
-0.0489995 0.121764 -0.0138889 
-0.0484429 0.121946 -0.0127778 
-0.0481646 0.122037 -0.0138889 
-0.047608 0.122219 -0.0127778 
-0.0473297 0.12231 -0.0138889 
-0.0467732 0.122492 -0.0127778 
-0.0464948 0.122584 -0.0138889 
-0.0459383 0.122766 -0.0127778 
-0.04566 0.122857 -0.0138889 
-0.0451034 0.123039 -0.0127778 
-0.0448251 0.12313 -0.0138889 
-0.0442685 0.123312 -0.0127778 
-0.0439902 0.123403 -0.0138889 
-0.0434336 0.123585 -0.0127778 
-0.0431553 0.123676 -0.0138889 
-0.0489995 0.121764 -0.0105556 
-0.0484429 0.121946 -0.00944444 
-0.0481646 0.122037 -0.0105556 
-0.047608 0.122219 -0.00944444 
-0.0473297 0.12231 -0.0105556 
-0.0467732 0.122492 -0.00944444 
-0.0464948 0.122584 -0.0105556 
-0.0459383 0.122766 -0.00944444 
-0.04566 0.122857 -0.0105556 
-0.0451034 0.123039 -0.00944444 
-0.0448251 0.12313 -0.0105556 
-0.0442685 0.123312 -0.00944444 
-0.0439902 0.123403 -0.0105556 
-0.0434336 0.123585 -0.00944444 
-0.0431553 0.123676 -0.0105556 
-0.0481646 0.122037 -0.00722222 
-0.047608 0.122219 -0.00611111 
-0.0473297 0.12231 -0.00722222 
-0.0467732 0.122492 -0.00611111 
-0.0464948 0.122584 -0.00722222 
-0.0459383 0.122766 -0.00611111 
-0.04566 0.122857 -0.00722222 
-0.0451034 0.123039 -0.00611111 
-0.0448251 0.12313 -0.00722222 
-0.0442685 0.123312 -0.00611111 
-0.0439902 0.123403 -0.00722222 
-0.0434336 0.123585 -0.00611111 
-0.0431553 0.123676 -0.00722222 
-0.0473297 0.12231 -0.00388889 
-0.0467732 0.122492 -0.00277778 
-0.0464948 0.122584 -0.00388889 
-0.0459383 0.122766 -0.00277778 
-0.04566 0.122857 -0.00388889 
-0.0451034 0.123039 -0.00277778 
-0.0448251 0.12313 -0.00388889 
-0.0442685 0.123312 -0.00277778 
-0.0439902 0.123403 -0.00388889 
-0.0434336 0.123585 -0.00277778 
-0.0431553 0.123676 -0.00388889 
-0.0464948 0.122584 -0.000555556 
-0.0459383 0.122766 0.000555556 
-0.04566 0.122857 -0.000555556 
-0.0451034 0.123039 0.000555556 
-0.0448251 0.12313 -0.000555556 
-0.0442685 0.123312 0.000555555 
-0.0439902 0.123403 -0.000555556 
-0.0434336 0.123585 0.000555556 
-0.0431553 0.123676 -0.000555556 
-0.04566 0.122857 0.00277778 
-0.0451034 0.123039 0.00388889 
-0.0448251 0.12313 0.00277778 
-0.0442685 0.123312 0.00388889 
-0.0439902 0.123403 0.00277778 
-0.0434336 0.123585 0.00388889 
-0.0431553 0.123676 0.00277778 
-0.0448251 0.12313 0.00611111 
-0.0442685 0.123312 0.00722222 
-0.0439902 0.123403 0.00611111 
-0.0434336 0.123585 0.00722222 
-0.0431553 0.123676 0.00611111 
-0.0439902 0.123403 0.00944445 
-0.0434336 0.123585 0.0105556 
-0.0431553 0.123676 0.00944445 
-0.0431553 0.123676 0.0127778 
-0.0426226 0.123836 -0.013 
-0.0423682 0.123904 -0.011 
-0.0418594 0.124042 -0.01 
-0.041605 0.12411 -0.008 
-0.0410962 0.124247 -0.007 
-0.0408418 0.124316 -0.005 
-0.040333 0.124453 -0.004 
-0.0400786 0.124522 -0.002 
-0.0395698 0.124659 -0.001 
-0.0393154 0.124728 0.001 
-0.0388066 0.124865 0.002 
-0.0385522 0.124934 0.004 
-0.0380434 0.125071 0.005 
-0.037789 0.12514 0.007 
-0.0372802 0.125277 0.008 
-0.0370258 0.125346 0.01 
-0.036517 0.125483 0.011 
-0.0362626 0.125551 0.013 
-0.0357538 0.125689 0.014 
-0.0426226 0.123836 -0.01 
-0.0423682 0.123904 -0.008 
-0.0418594 0.124042 -0.007 
-0.041605 0.12411 -0.005 
-0.0410962 0.124247 -0.004 
-0.0408418 0.124316 -0.002 
-0.040333 0.124453 -0.001 
-0.0400786 0.124522 0.001 
-0.0395698 0.124659 0.002 
-0.0393154 0.124728 0.004 
-0.0388066 0.124865 0.005 
-0.0385522 0.124934 0.007 
-0.0380434 0.125071 0.008 
-0.037789 0.12514 0.01 
-0.0372802 0.125277 0.011 
-0.0370258 0.125346 0.013 
-0.036517 0.125483 0.014 
-0.0426226 0.123836 -0.007 
-0.0423682 0.123904 -0.005 
-0.0418594 0.124042 -0.004 
-0.041605 0.12411 -0.002 
-0.0410962 0.124247 -0.001 
-0.0408418 0.124316 0.001 
-0.040333 0.124453 0.002 
-0.0400786 0.124522 0.004 
-0.0395698 0.124659 0.005 
-0.0393154 0.124728 0.007 
-0.0388066 0.124865 0.008 
-0.0385522 0.124934 0.01 
-0.0380434 0.125071 0.011 
-0.037789 0.12514 0.013 
-0.0372802 0.125277 0.014 
-0.0426226 0.123836 -0.004 
-0.0423682 0.123904 -0.002 
-0.0418594 0.124042 -0.001 
-0.041605 0.12411 0.001 
-0.0410962 0.124247 0.002 
-0.0408418 0.124316 0.004 
-0.040333 0.124453 0.005 
-0.0400786 0.124522 0.007 
-0.0395698 0.124659 0.008 
-0.0393154 0.124728 0.01 
-0.0388066 0.124865 0.011 
-0.0385522 0.124934 0.013 
-0.0380434 0.125071 0.014 
-0.0426226 0.123836 -0.001 
-0.0423682 0.123904 0.001 
-0.0418594 0.124042 0.002 
-0.041605 0.12411 0.004 
-0.0410962 0.124247 0.005 
-0.0408418 0.124316 0.007 
-0.040333 0.124453 0.008 
-0.0400786 0.124522 0.01 
-0.0395698 0.124659 0.011 
-0.0393154 0.124728 0.013 
-0.0388066 0.124865 0.014 
-0.0426226 0.123836 0.002 
-0.0423682 0.123904 0.004 
-0.0418594 0.124042 0.005 
-0.041605 0.12411 0.007 
-0.0410962 0.124247 0.008 
-0.0408418 0.124316 0.01 
-0.040333 0.124453 0.011 
-0.0400786 0.124522 0.013 
-0.0395698 0.124659 0.014 
-0.0426226 0.123836 0.005 
-0.0423682 0.123904 0.007 
-0.0418594 0.124042 0.008 
-0.041605 0.12411 0.01 
-0.0410962 0.124247 0.011 
-0.0408418 0.124316 0.013 
-0.040333 0.124453 0.014 
-0.0426226 0.123836 0.008 
-0.0423682 0.123904 0.01 
-0.0418594 0.124042 0.011 
-0.041605 0.12411 0.013 
-0.0410962 0.124247 0.014 
-0.0426226 0.123836 0.011 
-0.0423682 0.123904 0.013 
-0.0418594 0.124042 0.014 
-0.0426226 0.123836 0.014 
-0.0572725 0.118648 -0.014 
-0.0567809 0.118838 -0.013 
-0.0565352 0.118933 -0.014 
-0.0560436 0.119123 -0.013 
-0.0557979 0.119218 -0.014 
-0.0553063 0.119408 -0.013 
-0.0550606 0.119503 -0.014 
-0.054569 0.119693 -0.013 
-0.0543233 0.119788 -0.014 
-0.0538317 0.119979 -0.013 
-0.053586 0.120074 -0.014 
-0.0530944 0.120264 -0.013 
-0.0528487 0.120359 -0.014 
-0.0523571 0.120549 -0.013 
-0.0521114 0.120644 -0.014 
-0.0516198 0.120834 -0.013 
-0.0513741 0.120929 -0.014 
-0.0508825 0.121119 -0.013 
-0.0506368 0.121214 -0.014 
-0.0565352 0.118933 -0.011 
-0.0560436 0.119123 -0.01 
-0.0557979 0.119218 -0.011 
-0.0553063 0.119408 -0.01 
-0.0550606 0.119503 -0.011 
-0.054569 0.119693 -0.01 
-0.0543233 0.119788 -0.011 
-0.0538317 0.119979 -0.01 
-0.053586 0.120074 -0.011 
-0.0530944 0.120264 -0.01 
-0.0528487 0.120359 -0.011 
-0.0523571 0.120549 -0.01 
-0.0521114 0.120644 -0.011 
-0.0516198 0.120834 -0.01 
-0.0513741 0.120929 -0.011 
-0.0508825 0.121119 -0.01 
-0.0506368 0.121214 -0.011 
-0.0557979 0.119218 -0.008 
-0.0553063 0.119408 -0.007 
-0.0550606 0.119503 -0.008 
-0.054569 0.119693 -0.007 
-0.0543233 0.119788 -0.008 
-0.0538317 0.119979 -0.007 
-0.053586 0.120074 -0.008 
-0.0530944 0.120264 -0.007 
-0.0528487 0.120359 -0.008 
-0.0523571 0.120549 -0.007 
-0.0521114 0.120644 -0.008 
-0.0516198 0.120834 -0.007 
-0.0513741 0.120929 -0.008 
-0.0508825 0.121119 -0.007 
-0.0506368 0.121214 -0.008 
-0.0550606 0.119503 -0.005 
-0.054569 0.119693 -0.004 
-0.0543233 0.119788 -0.005 
-0.0538317 0.119979 -0.004 
-0.053586 0.120074 -0.005 
-0.0530944 0.120264 -0.004 
-0.0528487 0.120359 -0.005 
-0.0523571 0.120549 -0.004 
-0.0521114 0.120644 -0.005 
-0.0516198 0.120834 -0.004 
-0.0513741 0.120929 -0.005 
-0.0508825 0.121119 -0.004 
-0.0506368 0.121214 -0.005 
-0.0543233 0.119788 -0.002 
-0.0538317 0.119979 -0.001 
-0.053586 0.120074 -0.002 
-0.0530944 0.120264 -0.001 
-0.0528487 0.120359 -0.002 
-0.0523571 0.120549 -0.001 
-0.0521114 0.120644 -0.002 
-0.0516198 0.120834 -0.001 
-0.0513741 0.120929 -0.002 
-0.0508825 0.121119 -0.001 
-0.0506368 0.121214 -0.002 
-0.053586 0.120074 0.001 
-0.0530944 0.120264 0.002 
-0.0528487 0.120359 0.001 
-0.0523571 0.120549 0.002 
-0.0521114 0.120644 0.001 
-0.0516198 0.120834 0.002 
-0.0513741 0.120929 0.001 
-0.0508825 0.121119 0.002 
-0.0506368 0.121214 0.001 
-0.0528487 0.120359 0.004 
-0.0523571 0.120549 0.005 
-0.0521114 0.120644 0.004 
-0.0516198 0.120834 0.005 
-0.0513741 0.120929 0.004 
-0.0508825 0.121119 0.005 
-0.0506368 0.121214 0.004 
-0.0521114 0.120644 0.007 
-0.0516198 0.120834 0.008 
-0.0513741 0.120929 0.007 
-0.0508825 0.121119 0.008 
-0.0506368 0.121214 0.007 
-0.0513741 0.120929 0.01 
-0.0508825 0.121119 0.011 
-0.0506368 0.121214 0.01 
-0.0506368 0.121214 0.013 
-0.0501127 0.1214 -0.0127778 
-0.0498344 0.121491 -0.0105556 
-0.0492778 0.121673 -0.00944445 
-0.0489995 0.121764 -0.00722222 
-0.0484429 0.121946 -0.00611111 
-0.0481646 0.122037 -0.00388889 
-0.047608 0.122219 -0.00277778 
-0.0473297 0.12231 -0.000555555 
-0.0467731 0.122492 0.000555556 
-0.0464948 0.122584 0.00277778 
-0.0459383 0.122766 0.00388889 
-0.04566 0.122857 0.00611111 
-0.0451034 0.123039 0.00722222 
-0.0448251 0.12313 0.00944445 
-0.0442685 0.123312 0.0105556 
-0.0439902 0.123403 0.0127778 
-0.0434336 0.123585 0.0138889 
-0.0501127 0.1214 -0.00944445 
-0.0498344 0.121491 -0.00722222 
-0.0492778 0.121673 -0.00611111 
-0.0489995 0.121764 -0.00388889 
-0.0484429 0.121946 -0.00277778 
-0.0481646 0.122037 -0.000555554 
-0.047608 0.122219 0.000555556 
-0.0473297 0.12231 0.00277778 
-0.0467731 0.122492 0.00388889 
-0.0464948 0.122584 0.00611111 
-0.0459383 0.122766 0.00722222 
-0.04566 0.122857 0.00944444 
-0.0451034 0.123039 0.0105556 
-0.0448251 0.12313 0.0127778 
-0.0442685 0.123312 0.0138889 
-0.0501127 0.1214 -0.00611111 
-0.0498344 0.121491 -0.00388889 
-0.0492778 0.121673 -0.00277778 
-0.0489995 0.121764 -0.000555555 
-0.0484429 0.121946 0.000555556 
-0.0481646 0.122037 0.00277778 
-0.047608 0.122219 0.00388889 
-0.0473297 0.12231 0.00611111 
-0.0467731 0.122492 0.00722222 
-0.0464948 0.122584 0.00944445 
-0.0459383 0.122766 0.0105556 
-0.04566 0.122857 0.0127778 
-0.0451034 0.123039 0.0138889 
-0.0501127 0.1214 -0.00277778 
-0.0498344 0.121491 -0.000555555 
-0.0492778 0.121673 0.000555556 
-0.0489995 0.121764 0.00277778 
-0.0484429 0.121946 0.00388889 
-0.0481646 0.122037 0.00611111 
-0.047608 0.122219 0.00722222 
-0.0473297 0.12231 0.00944444 
-0.0467731 0.122492 0.0105556 
-0.0464948 0.122584 0.0127778 
-0.0459383 0.122766 0.0138889 
-0.0501127 0.1214 0.000555556 
-0.0498344 0.121491 0.00277778 
-0.0492778 0.121673 0.00388889 
-0.0489995 0.121764 0.00611111 
-0.0484429 0.121946 0.00722222 
-0.0481646 0.122037 0.00944445 
-0.047608 0.122219 0.0105556 
-0.0473297 0.12231 0.0127778 
-0.0467731 0.122492 0.0138889 
-0.0501127 0.1214 0.00388889 
-0.0498344 0.121491 0.00611111 
-0.0492778 0.121673 0.00722222 
-0.0489995 0.121764 0.00944444 
-0.0484429 0.121946 0.0105556 
-0.0481646 0.122037 0.0127778 
-0.047608 0.122219 0.0138889 
-0.0501127 0.1214 0.00722222 
-0.0498344 0.121491 0.00944445 
-0.0492778 0.121673 0.0105556 
-0.0489995 0.121764 0.0127778 
-0.0484429 0.121946 0.0138889 
-0.0501127 0.1214 0.0105556 
-0.0498344 0.121491 0.0127778 
-0.0492778 0.121673 0.0138889 
-0.0501127 0.1214 0.0138889 
-0.0575182 0.118553 -0.013 
-0.0572725 0.118648 -0.011 
-0.0567809 0.118838 -0.01 
-0.0565352 0.118933 -0.008 
-0.0560436 0.119123 -0.007 
-0.0557979 0.119218 -0.005 
-0.0553063 0.119408 -0.004 
-0.0550606 0.119503 -0.002 
-0.054569 0.119693 -0.001 
-0.0543233 0.119788 0.001 
-0.0538317 0.119979 0.002 
-0.053586 0.120074 0.004 
-0.0530944 0.120264 0.005 
-0.0528487 0.120359 0.007 
-0.0523571 0.120549 0.008 
-0.0521114 0.120644 0.01 
-0.0516198 0.120834 0.011 
-0.0513741 0.120929 0.013 
-0.0508825 0.121119 0.014 
-0.0575182 0.118553 -0.01 
-0.0572725 0.118648 -0.008 
-0.0567809 0.118838 -0.007 
-0.0565352 0.118933 -0.005 
-0.0560436 0.119123 -0.004 
-0.0557979 0.119218 -0.002 
-0.0553063 0.119408 -0.001 
-0.0550606 0.119503 0.001 
-0.054569 0.119693 0.002 
-0.0543233 0.119788 0.004 
-0.0538317 0.119979 0.005 
-0.053586 0.120074 0.007 
-0.0530944 0.120264 0.008 
-0.0528487 0.120359 0.01 
-0.0523571 0.120549 0.011 
-0.0521114 0.120644 0.013 
-0.0516198 0.120834 0.014 
-0.0575182 0.118553 -0.007 
-0.0572725 0.118648 -0.005 
-0.0567809 0.118838 -0.004 
-0.0565352 0.118933 -0.002 
-0.0560436 0.119123 -0.001 
-0.0557979 0.119218 0.001 
-0.0553063 0.119408 0.002 
-0.0550606 0.119503 0.004 
-0.054569 0.119693 0.005 
-0.0543233 0.119788 0.007 
-0.0538317 0.119979 0.008 
-0.053586 0.120074 0.01 
-0.0530944 0.120264 0.011 
-0.0528487 0.120359 0.013 
-0.0523571 0.120549 0.014 
-0.0575182 0.118553 -0.004 
-0.0572725 0.118648 -0.002 
-0.0567809 0.118838 -0.001 
-0.0565352 0.118933 0.001 
-0.0560436 0.119123 0.002 
-0.0557979 0.119218 0.004 
-0.0553063 0.119408 0.005 
-0.0550606 0.119503 0.007 
-0.054569 0.119693 0.008 
-0.0543233 0.119788 0.01 
-0.0538317 0.119979 0.011 
-0.053586 0.120074 0.013 
-0.0530944 0.120264 0.014 
-0.0575182 0.118553 -0.001 
-0.0572725 0.118648 0.001 
-0.0567809 0.118838 0.002 
-0.0565352 0.118933 0.004 
-0.0560436 0.119123 0.005 
-0.0557979 0.119218 0.007 
-0.0553063 0.119408 0.008 
-0.0550606 0.119503 0.01 
-0.054569 0.119693 0.011 
-0.0543233 0.119788 0.013 
-0.0538317 0.119979 0.014 
-0.0575182 0.118553 0.002 
-0.0572725 0.118648 0.004 
-0.0567809 0.118838 0.005 
-0.0565352 0.118933 0.007 
-0.0560436 0.119123 0.008 
-0.0557979 0.119218 0.01 
-0.0553063 0.119408 0.011 
-0.0550606 0.119503 0.013 
-0.054569 0.119693 0.014 
-0.0575182 0.118553 0.005 
-0.0572725 0.118648 0.007 
-0.0567809 0.118838 0.008 
-0.0565352 0.118933 0.01 
-0.0560436 0.119123 0.011 
-0.0557979 0.119218 0.013 
-0.0553063 0.119408 0.014 
-0.0575182 0.118553 0.008 
-0.0572725 0.118648 0.01 
-0.0567809 0.118838 0.011 
-0.0565352 0.118933 0.013 
-0.0560436 0.119123 0.014 
-0.0575182 0.118553 0.011 
-0.0572725 0.118648 0.013 
-0.0567809 0.118838 0.014 
-0.0575182 0.118553 0.014 
-0.0647366 0.11533 -0.014 
-0.0644961 0.115438 -0.013 
-0.0640153 0.115653 -0.014 
-0.0637748 0.115761 -0.013 
-0.063294 0.115977 -0.014 
-0.0630535 0.116085 -0.013 
-0.0625727 0.116301 -0.014 
-0.0623322 0.116409 -0.013 
-0.0618514 0.116624 -0.014 
-0.0616109 0.116732 -0.013 
-0.0611301 0.116948 -0.014 
-0.0608896 0.117056 -0.013 
-0.0604088 0.117271 -0.014 
-0.0601683 0.117379 -0.013 
-0.0596875 0.117595 -0.014 
-0.059447 0.117703 -0.013 
-0.0589662 0.117919 -0.014 
-0.0587257 0.118027 -0.013 
-0.0582449 0.118242 -0.014 
-0.0647366 0.11533 -0.011 
-0.0644961 0.115438 -0.01 
-0.0640153 0.115653 -0.011 
-0.0637748 0.115761 -0.01 
-0.063294 0.115977 -0.011 
-0.0630535 0.116085 -0.01 
-0.0625727 0.116301 -0.011 
-0.0623322 0.116409 -0.01 
-0.0618514 0.116624 -0.011 
-0.0616109 0.116732 -0.01 
-0.0611301 0.116948 -0.011 
-0.0608896 0.117056 -0.01 
-0.0604088 0.117271 -0.011 
-0.0601683 0.117379 -0.01 
-0.0596875 0.117595 -0.011 
-0.059447 0.117703 -0.01 
-0.0589662 0.117919 -0.011 
-0.0647366 0.11533 -0.008 
-0.0644961 0.115438 -0.007 
-0.0640153 0.115653 -0.008 
-0.0637748 0.115761 -0.007 
-0.063294 0.115977 -0.008 
-0.0630535 0.116085 -0.007 
-0.0625727 0.116301 -0.008 
-0.0623322 0.116409 -0.007 
-0.0618514 0.116624 -0.008 
-0.0616109 0.116732 -0.007 
-0.0611301 0.116948 -0.008 
-0.0608896 0.117056 -0.007 
-0.0604088 0.117271 -0.008 
-0.0601683 0.117379 -0.007 
-0.0596875 0.117595 -0.008 
-0.0647366 0.11533 -0.005 
-0.0644961 0.115438 -0.004 
-0.0640153 0.115653 -0.005 
-0.0637748 0.115761 -0.004 
-0.063294 0.115977 -0.005 
-0.0630535 0.116085 -0.004 
-0.0625727 0.116301 -0.005 
-0.0623322 0.116409 -0.004 
-0.0618514 0.116624 -0.005 
-0.0616109 0.116732 -0.004 
-0.0611301 0.116948 -0.005 
-0.0608896 0.117056 -0.004 
-0.0604088 0.117271 -0.005 
-0.0647366 0.11533 -0.002 
-0.0644961 0.115438 -0.001 
-0.0640153 0.115653 -0.002 
-0.0637748 0.115761 -0.001 
-0.063294 0.115977 -0.002 
-0.0630535 0.116085 -0.001 
-0.0625727 0.116301 -0.002 
-0.0623322 0.116409 -0.001 
-0.0618514 0.116624 -0.002 
-0.0616109 0.116732 -0.001 
-0.0611301 0.116948 -0.002 
-0.0647366 0.11533 0.001 
-0.0644961 0.115438 0.002 
-0.0640153 0.115653 0.001 
-0.0637748 0.115761 0.002 
-0.063294 0.115977 0.001 
-0.0630535 0.116085 0.002 
-0.0625727 0.116301 0.001 
-0.0623322 0.116409 0.002 
-0.0618514 0.116624 0.001 
-0.0647366 0.11533 0.004 
-0.0644961 0.115438 0.005 
-0.0640153 0.115653 0.004 
-0.0637748 0.115761 0.005 
-0.063294 0.115977 0.004 
-0.0630535 0.116085 0.005 
-0.0625727 0.116301 0.004 
-0.0647366 0.11533 0.007 
-0.0644961 0.115438 0.008 
-0.0640153 0.115653 0.007 
-0.0637748 0.115761 0.008 
-0.063294 0.115977 0.007 
-0.0647366 0.11533 0.01 
-0.0644961 0.115438 0.011 
-0.0640153 0.115653 0.01 
-0.0647366 0.11533 0.013 
-0.0580311 0.118338 -0.0127778 
-0.0582983 0.118218 -0.0105556 
-0.0580312 0.118338 -0.00944445 
-0.0582983 0.118218 -0.00722222 
-0.0580311 0.118338 -0.00611111 
-0.0582983 0.118218 -0.00388889 
-0.0580311 0.118338 -0.00277778 
-0.0582983 0.118218 -0.000555555 
-0.0580311 0.118338 0.000555556 
-0.0582983 0.118218 0.00277778 
-0.0580312 0.118338 0.00388889 
-0.0582983 0.118218 0.00611111 
-0.0580311 0.118338 0.00722222 
-0.0582983 0.118218 0.00944445 
-0.0580311 0.118338 0.0105556 
-0.0582983 0.118218 0.0127778 
-0.0580311 0.118338 0.0138889 
-0.0588326 0.117979 -0.00944445 
-0.0590997 0.117859 -0.00722222 
-0.0588326 0.117979 -0.00611111 
-0.0590997 0.117859 -0.00388889 
-0.0588326 0.117979 -0.00277778 
-0.0590997 0.117859 -0.000555554 
-0.0588326 0.117979 0.000555556 
-0.0590997 0.117859 0.00277778 
-0.0588326 0.117979 0.00388889 
-0.0590997 0.117859 0.00611111 
-0.0588326 0.117979 0.00722222 
-0.0590997 0.117859 0.00944444 
-0.0588326 0.117979 0.0105556 
-0.0590997 0.117859 0.0127778 
-0.0588326 0.117979 0.0138889 
-0.059634 0.117619 -0.00611111 
-0.0599012 0.117499 -0.00388889 
-0.059634 0.117619 -0.00277778 
-0.0599012 0.117499 -0.000555555 
-0.059634 0.117619 0.000555556 
-0.0599012 0.117499 0.00277778 
-0.059634 0.117619 0.00388889 
-0.0599012 0.117499 0.00611111 
-0.059634 0.117619 0.00722222 
-0.0599012 0.117499 0.00944445 
-0.059634 0.117619 0.0105556 
-0.0599012 0.117499 0.0127778 
-0.059634 0.117619 0.0138889 
-0.0604355 0.117259 -0.00277778 
-0.0607026 0.11714 -0.000555555 
-0.0604355 0.117259 0.000555556 
-0.0607026 0.11714 0.00277778 
-0.0604355 0.117259 0.00388889 
-0.0607026 0.11714 0.00611111 
-0.0604355 0.117259 0.00722222 
-0.0607026 0.11714 0.00944444 
-0.0604355 0.117259 0.0105556 
-0.0607026 0.11714 0.0127778 
-0.0604355 0.117259 0.0138889 
-0.0612369 0.1169 0.000555556 
-0.0615041 0.11678 0.00277778 
-0.0612369 0.1169 0.00388889 
-0.0615041 0.11678 0.00611111 
-0.0612369 0.1169 0.00722222 
-0.0615041 0.11678 0.00944445 
-0.0612369 0.1169 0.0105556 
-0.0615041 0.11678 0.0127778 
-0.0612369 0.1169 0.0138889 
-0.0620384 0.11654 0.00388889 
-0.0623055 0.116421 0.00611111 
-0.0620384 0.11654 0.00722222 
-0.0623055 0.116421 0.00944444 
-0.0620384 0.11654 0.0105556 
-0.0623055 0.116421 0.0127778 
-0.0620384 0.11654 0.0138889 
-0.0628398 0.116181 0.00722222 
-0.063107 0.116061 0.00944445 
-0.0628398 0.116181 0.0105556 
-0.063107 0.116061 0.0127778 
-0.0628398 0.116181 0.0138889 
-0.0636413 0.115821 0.0105556 
-0.0639084 0.115701 0.0127778 
-0.0636413 0.115821 0.0138889 
-0.0644427 0.115462 0.0138889 
-0.0717746 0.111731 -0.014 
-0.0715402 0.111852 -0.013 
-0.0710714 0.112092 -0.014 
-0.070837 0.112213 -0.013 
-0.0703682 0.112454 -0.014 
-0.0701338 0.112574 -0.013 
-0.069665 0.112815 -0.014 
-0.0694306 0.112935 -0.013 
-0.0689618 0.113176 -0.014 
-0.0687274 0.113296 -0.013 
-0.0682586 0.113537 -0.014 
-0.0680242 0.113657 -0.013 
-0.0675554 0.113898 -0.014 
-0.067321 0.114018 -0.013 
-0.0668522 0.114259 -0.014 
-0.0666178 0.114379 -0.013 
-0.066149 0.11462 -0.014 
-0.0659146 0.114741 -0.013 
-0.0654458 0.114981 -0.014 
-0.0717746 0.111731 -0.011 
-0.0715402 0.111852 -0.01 
-0.0710714 0.112092 -0.011 
-0.070837 0.112213 -0.01 
-0.0703682 0.112454 -0.011 
-0.0701338 0.112574 -0.01 
-0.069665 0.112815 -0.011 
-0.0694306 0.112935 -0.01 
-0.0689618 0.113176 -0.011 
-0.0687274 0.113296 -0.01 
-0.0682586 0.113537 -0.011 
-0.0680242 0.113657 -0.01 
-0.0675554 0.113898 -0.011 
-0.067321 0.114018 -0.01 
-0.0668522 0.114259 -0.011 
-0.0666178 0.114379 -0.01 
-0.066149 0.11462 -0.011 
-0.0717746 0.111731 -0.008 
-0.0715402 0.111852 -0.007 
-0.0710714 0.112092 -0.008 
-0.070837 0.112213 -0.007 
-0.0703682 0.112454 -0.008 
-0.0701338 0.112574 -0.007 
-0.069665 0.112815 -0.008 
-0.0694306 0.112935 -0.007 
-0.0689618 0.113176 -0.008 
-0.0687274 0.113296 -0.007 
-0.0682586 0.113537 -0.008 
-0.0680242 0.113657 -0.007 
-0.0675554 0.113898 -0.008 
-0.067321 0.114018 -0.007 
-0.0668522 0.114259 -0.008 
-0.0717746 0.111731 -0.005 
-0.0715402 0.111852 -0.004 
-0.0710714 0.112092 -0.005 
-0.070837 0.112213 -0.004 
-0.0703682 0.112454 -0.005 
-0.0701338 0.112574 -0.004 
-0.069665 0.112815 -0.005 
-0.0694306 0.112935 -0.004 
-0.0689618 0.113176 -0.005 
-0.0687274 0.113296 -0.004 
-0.0682586 0.113537 -0.005 
-0.0680242 0.113657 -0.004 
-0.0675554 0.113898 -0.005 
-0.0717746 0.111731 -0.002 
-0.0715402 0.111852 -0.001 
-0.0710714 0.112092 -0.002 
-0.070837 0.112213 -0.001 
-0.0703682 0.112454 -0.002 
-0.0701338 0.112574 -0.001 
-0.069665 0.112815 -0.002 
-0.0694306 0.112935 -0.001 
-0.0689618 0.113176 -0.002 
-0.0687274 0.113296 -0.001 
-0.0682586 0.113537 -0.002 
-0.0717746 0.111731 0.001 
-0.0715402 0.111852 0.002 
-0.0710714 0.112092 0.001 
-0.070837 0.112213 0.002 
-0.0703682 0.112454 0.001 
-0.0701338 0.112574 0.002 
-0.069665 0.112815 0.001 
-0.0694306 0.112935 0.002 
-0.0689618 0.113176 0.001 
-0.0717746 0.111731 0.004 
-0.0715402 0.111852 0.005 
-0.0710714 0.112092 0.004 
-0.070837 0.112213 0.005 
-0.0703682 0.112454 0.004 
-0.0701338 0.112574 0.005 
-0.069665 0.112815 0.004 
-0.0717746 0.111731 0.007 
-0.0715402 0.111852 0.008 
-0.0710714 0.112092 0.007 
-0.070837 0.112213 0.008 
-0.0703682 0.112454 0.007 
-0.0717746 0.111731 0.01 
-0.0715402 0.111852 0.011 
-0.0710714 0.112092 0.01 
-0.0717746 0.111731 0.013 
-0.0652114 0.115102 -0.013 
-0.0654458 0.114981 -0.011 
-0.0652114 0.115102 -0.01 
-0.0654458 0.114981 -0.008 
-0.0652114 0.115102 -0.007 
-0.0654458 0.114981 -0.005 
-0.0652114 0.115102 -0.004 
-0.0654458 0.114981 -0.002 
-0.0652114 0.115102 -0.001 
-0.0654458 0.114981 0.001 
-0.0652114 0.115102 0.002 
-0.0654458 0.114981 0.004 
-0.0652114 0.115102 0.005 
-0.0654458 0.114981 0.007 
-0.0652114 0.115102 0.008 
-0.0654458 0.114981 0.01 
-0.0652114 0.115102 0.011 
-0.0654458 0.114981 0.013 
-0.0652114 0.115102 0.014 
-0.0659146 0.114741 -0.01 
-0.066149 0.11462 -0.008 
-0.0659146 0.114741 -0.007 
-0.066149 0.11462 -0.005 
-0.0659146 0.114741 -0.004 
-0.066149 0.11462 -0.002 
-0.0659146 0.114741 -0.001 
-0.066149 0.11462 0.001 
-0.0659146 0.114741 0.002 
-0.066149 0.11462 0.004 
-0.0659146 0.114741 0.005 
-0.066149 0.11462 0.007 
-0.0659146 0.114741 0.008 
-0.066149 0.11462 0.01 
-0.0659146 0.114741 0.011 
-0.066149 0.11462 0.013 
-0.0659146 0.114741 0.014 
-0.0666178 0.114379 -0.007 
-0.0668522 0.114259 -0.005 
-0.0666178 0.114379 -0.004 
-0.0668522 0.114259 -0.002 
-0.0666178 0.114379 -0.001 
-0.0668522 0.114259 0.001 
-0.0666178 0.114379 0.002 
-0.0668522 0.114259 0.004 
-0.0666178 0.114379 0.005 
-0.0668522 0.114259 0.007 
-0.0666178 0.114379 0.008 
-0.0668522 0.114259 0.01 
-0.0666178 0.114379 0.011 
-0.0668522 0.114259 0.013 
-0.0666178 0.114379 0.014 
-0.067321 0.114018 -0.004 
-0.0675554 0.113898 -0.002 
-0.067321 0.114018 -0.001 
-0.0675554 0.113898 0.001 
-0.067321 0.114018 0.002 
-0.0675554 0.113898 0.004 
-0.067321 0.114018 0.005 
-0.0675554 0.113898 0.007 
-0.067321 0.114018 0.008 
-0.0675554 0.113898 0.01 
-0.067321 0.114018 0.011 
-0.0675554 0.113898 0.013 
-0.067321 0.114018 0.014 
-0.0680242 0.113657 -0.001 
-0.0682586 0.113537 0.001 
-0.0680242 0.113657 0.002 
-0.0682586 0.113537 0.004 
-0.0680242 0.113657 0.005 
-0.0682586 0.113537 0.007 
-0.0680242 0.113657 0.008 
-0.0682586 0.113537 0.01 
-0.0680242 0.113657 0.011 
-0.0682586 0.113537 0.013 
-0.0680242 0.113657 0.014 
-0.0687274 0.113296 0.002 
-0.0689618 0.113176 0.004 
-0.0687274 0.113296 0.005 
-0.0689618 0.113176 0.007 
-0.0687274 0.113296 0.008 
-0.0689618 0.113176 0.01 
-0.0687274 0.113296 0.011 
-0.0689618 0.113176 0.013 
-0.0687274 0.113296 0.014 
-0.0694306 0.112935 0.005 
-0.069665 0.112815 0.007 
-0.0694306 0.112935 0.008 
-0.069665 0.112815 0.01 
-0.0694306 0.112935 0.011 
-0.069665 0.112815 0.013 
-0.0694306 0.112935 0.014 
-0.0701338 0.112574 0.008 
-0.0703682 0.112454 0.01 
-0.0701338 0.112574 0.011 
-0.0703682 0.112454 0.013 
-0.0701338 0.112574 0.014 
-0.070837 0.112213 0.011 
-0.0710714 0.112092 0.013 
-0.070837 0.112213 0.014 
-0.0715402 0.111852 0.014 
-0.0785889 0.107782 -0.0138889 
-0.0783359 0.10793 -0.0127778 
-0.0778297 0.108224 -0.0138889 
-0.0775766 0.108371 -0.0127778 
-0.0770705 0.108666 -0.0138889 
-0.0768174 0.108813 -0.0127778 
-0.0763113 0.109108 -0.0138889 
-0.0760582 0.109255 -0.0127778 
-0.075552 0.109549 -0.0138889 
-0.075299 0.109697 -0.0127778 
-0.0747928 0.109991 -0.0138889 
-0.0745397 0.110138 -0.0127778 
-0.0740336 0.110433 -0.0138889 
-0.0737805 0.11058 -0.0127778 
-0.0732744 0.110875 -0.0138889 
-0.0730213 0.111022 -0.0127778 
-0.0725152 0.111316 -0.0138889 
-0.0785889 0.107782 -0.0105556 
-0.0783359 0.10793 -0.00944444 
-0.0778297 0.108224 -0.0105556 
-0.0775766 0.108371 -0.00944444 
-0.0770705 0.108666 -0.0105556 
-0.0768174 0.108813 -0.00944444 
-0.0763113 0.109108 -0.0105556 
-0.0760582 0.109255 -0.00944444 
-0.075552 0.109549 -0.0105556 
-0.075299 0.109697 -0.00944444 
-0.0747928 0.109991 -0.0105556 
-0.0745397 0.110138 -0.00944444 
-0.0740336 0.110433 -0.0105556 
-0.0737805 0.11058 -0.00944444 
-0.0732744 0.110875 -0.0105556 
-0.0785889 0.107782 -0.00722222 
-0.0783359 0.10793 -0.00611111 
-0.0778297 0.108224 -0.00722222 
-0.0775766 0.108371 -0.00611111 
-0.0770705 0.108666 -0.00722222 
-0.0768174 0.108813 -0.00611111 
-0.0763113 0.109108 -0.00722222 
-0.0760582 0.109255 -0.00611111 
-0.075552 0.109549 -0.00722222 
-0.075299 0.109697 -0.00611111 
-0.0747928 0.109991 -0.00722222 
-0.0745397 0.110138 -0.00611111 
-0.0740336 0.110433 -0.00722222 
-0.0785889 0.107782 -0.00388889 
-0.0783359 0.10793 -0.00277778 
-0.0778297 0.108224 -0.00388889 
-0.0775766 0.108371 -0.00277778 
-0.0770705 0.108666 -0.00388889 
-0.0768174 0.108813 -0.00277778 
-0.0763113 0.109108 -0.00388889 
-0.0760582 0.109255 -0.00277778 
-0.075552 0.109549 -0.00388889 
-0.075299 0.109697 -0.00277778 
-0.0747928 0.109991 -0.00388889 
-0.0785889 0.107782 -0.000555556 
-0.0783359 0.10793 0.000555556 
-0.0778297 0.108224 -0.000555556 
-0.0775766 0.108371 0.000555556 
-0.0770705 0.108666 -0.000555556 
-0.0768174 0.108813 0.000555555 
-0.0763113 0.109108 -0.000555556 
-0.0760582 0.109255 0.000555556 
-0.075552 0.109549 -0.000555556 
-0.0785889 0.107782 0.00277778 
-0.0783359 0.10793 0.00388889 
-0.0778297 0.108224 0.00277778 
-0.0775766 0.108371 0.00388889 
-0.0770705 0.108666 0.00277778 
-0.0768174 0.108813 0.00388889 
-0.0763113 0.109108 0.00277778 
-0.0785889 0.107782 0.00611111 
-0.0783359 0.10793 0.00722222 
-0.0778297 0.108224 0.00611111 
-0.0775766 0.108371 0.00722222 
-0.0770705 0.108666 0.00611111 
-0.0785889 0.107782 0.00944445 
-0.0783358 0.10793 0.0105556 
-0.0778297 0.108224 0.00944445 
-0.0785889 0.107782 0.0127778 
-0.0722368 0.111478 -0.013 
-0.0724645 0.111346 -0.011 
-0.0722368 0.111478 -0.01 
-0.0724645 0.111346 -0.008 
-0.0722368 0.111478 -0.007 
-0.0724645 0.111346 -0.005 
-0.0722368 0.111478 -0.004 
-0.0724645 0.111346 -0.002 
-0.0722368 0.111478 -0.001 
-0.0724645 0.111346 0.001 
-0.0722368 0.111478 0.002 
-0.0724645 0.111346 0.004 
-0.0722368 0.111478 0.005 
-0.0724645 0.111346 0.007 
-0.0722368 0.111478 0.008 
-0.0724645 0.111346 0.01 
-0.0722368 0.111478 0.011 
-0.0724645 0.111346 0.013 
-0.0722368 0.111478 0.014 
-0.0729201 0.111081 -0.01 
-0.0731478 0.110948 -0.008 
-0.0729201 0.111081 -0.007 
-0.0731478 0.110948 -0.005 
-0.0729201 0.111081 -0.004 
-0.0731478 0.110948 -0.002 
-0.0729201 0.111081 -0.001 
-0.0731478 0.110948 0.001 
-0.0729201 0.111081 0.002 
-0.0731478 0.110948 0.004 
-0.0729201 0.111081 0.005 
-0.0731478 0.110948 0.007 
-0.0729201 0.111081 0.008 
-0.0731478 0.110948 0.01 
-0.0729201 0.111081 0.011 
-0.0731478 0.110948 0.013 
-0.0729201 0.111081 0.014 
-0.0736034 0.110683 -0.007 
-0.0738311 0.110551 -0.005 
-0.0736034 0.110683 -0.004 
-0.0738311 0.110551 -0.002 
-0.0736034 0.110683 -0.001 
-0.0738311 0.110551 0.001 
-0.0736034 0.110683 0.002 
-0.0738311 0.110551 0.004 
-0.0736034 0.110683 0.005 
-0.0738311 0.110551 0.007 
-0.0736034 0.110683 0.008 
-0.0738311 0.110551 0.01 
-0.0736034 0.110683 0.011 
-0.0738311 0.110551 0.013 
-0.0736034 0.110683 0.014 
-0.0742867 0.110286 -0.004 
-0.0745144 0.110153 -0.002 
-0.0742867 0.110286 -0.001 
-0.0745144 0.110153 0.001 
-0.0742867 0.110286 0.002 
-0.0745144 0.110153 0.004 
-0.0742867 0.110286 0.005 
-0.0745144 0.110153 0.007 
-0.0742867 0.110286 0.008 
-0.0745144 0.110153 0.01 
-0.0742867 0.110286 0.011 
-0.0745144 0.110153 0.013 
-0.0742867 0.110286 0.014 
-0.07497 0.109888 -0.001 
-0.0751977 0.109756 0.001 
-0.07497 0.109888 0.002 
-0.0751977 0.109756 0.004 
-0.07497 0.109888 0.005 
-0.0751977 0.109756 0.007 
-0.07497 0.109888 0.008 
-0.0751977 0.109756 0.01 
-0.07497 0.109888 0.011 
-0.0751977 0.109756 0.013 
-0.07497 0.109888 0.014 
-0.0756533 0.10949 0.002 
-0.075881 0.109358 0.004 
-0.0756533 0.10949 0.005 
-0.075881 0.109358 0.007 
-0.0756533 0.10949 0.008 
-0.075881 0.109358 0.01 
-0.0756533 0.10949 0.011 
-0.075881 0.109358 0.013 
-0.0756533 0.10949 0.014 
-0.0763366 0.109093 0.005 
-0.0765643 0.10896 0.007 
-0.0763366 0.109093 0.008 
-0.0765643 0.10896 0.01 
-0.0763366 0.109093 0.011 
-0.0765643 0.10896 0.013 
-0.0763366 0.109093 0.014 
-0.0770199 0.108695 0.008 
-0.0772476 0.108563 0.01 
-0.0770199 0.108695 0.011 
-0.0772476 0.108563 0.013 
-0.0770199 0.108695 0.014 
-0.0777032 0.108298 0.011 
-0.0779309 0.108165 0.013 
-0.0777032 0.108298 0.014 
-0.0783865 0.1079 0.014 
-0.0790869 0.107475 -0.0127778 
-0.0793319 0.107314 -0.0105556 
-0.0790869 0.107475 -0.00944445 
-0.0793319 0.107314 -0.00722222 
-0.0790869 0.107475 -0.00611111 
-0.0793319 0.107314 -0.00388889 
-0.0790869 0.107475 -0.00277778 
-0.0793318 0.107314 -0.000555555 
-0.0790869 0.107475 0.000555556 
-0.0793318 0.107314 0.00277778 
-0.0790869 0.107475 0.00388889 
-0.0793319 0.107314 0.00611111 
-0.0790869 0.107475 0.00722222 
-0.0793319 0.107314 0.00944445 
-0.0790869 0.107475 0.0105556 
-0.0793318 0.107314 0.0127778 
-0.0790869 0.107475 0.0138889 
-0.0798217 0.106993 -0.00944445 
-0.0800666 0.106833 -0.00722222 
-0.0798217 0.106993 -0.00611111 
-0.0800666 0.106833 -0.00388889 
-0.0798217 0.106993 -0.00277778 
-0.0800666 0.106833 -0.000555554 
-0.0798217 0.106993 0.000555556 
-0.0800666 0.106833 0.00277778 
-0.0798217 0.106993 0.00388889 
-0.0800666 0.106833 0.00611111 
-0.0798217 0.106993 0.00722222 
-0.0800666 0.106833 0.00944444 
-0.0798217 0.106993 0.0105556 
-0.0800666 0.106833 0.0127778 
-0.0798217 0.106993 0.0138889 
-0.0805565 0.106512 -0.00611111 
-0.0808014 0.106352 -0.00388889 
-0.0805565 0.106512 -0.00277778 
-0.0808014 0.106352 -0.000555555 
-0.0805565 0.106512 0.000555556 
-0.0808014 0.106352 0.00277778 
-0.0805565 0.106512 0.00388889 
-0.0808014 0.106352 0.00611111 
-0.0805565 0.106512 0.00722222 
-0.0808014 0.106352 0.00944445 
-0.0805565 0.106512 0.0105556 
-0.0808014 0.106352 0.0127778 
-0.0805565 0.106512 0.0138889 
-0.0812913 0.106031 -0.00277778 
-0.0815362 0.105871 -0.000555555 
-0.0812913 0.106031 0.000555556 
-0.0815362 0.105871 0.00277778 
-0.0812913 0.106031 0.00388889 
-0.0815362 0.105871 0.00611111 
-0.0812913 0.106031 0.00722222 
-0.0815362 0.105871 0.00944444 
-0.0812913 0.106031 0.0105556 
-0.0815362 0.105871 0.0127778 
-0.0812913 0.106031 0.0138889 
-0.082026 0.10555 0.000555556 
-0.082271 0.105389 0.00277778 
-0.082026 0.10555 0.00388889 
-0.082271 0.105389 0.00611111 
-0.082026 0.10555 0.00722222 
-0.082271 0.105389 0.00944445 
-0.082026 0.10555 0.0105556 
-0.082271 0.105389 0.0127778 
-0.082026 0.10555 0.0138889 
-0.0827608 0.105068 0.00388889 
-0.0830057 0.104908 0.00611111 
-0.0827608 0.105068 0.00722222 
-0.0830057 0.104908 0.00944444 
-0.0827608 0.105068 0.0105556 
-0.0830057 0.104908 0.0127778 
-0.0827608 0.105068 0.0138889 
-0.0834956 0.104587 0.00722222 
-0.0837405 0.104427 0.00944445 
-0.0834956 0.104587 0.0105556 
-0.0837405 0.104427 0.0127778 
-0.0834956 0.104587 0.0138889 
-0.0842304 0.104106 0.0105556 
-0.0844753 0.103946 0.0127778 
-0.0842304 0.104106 0.0138889 
-0.0849652 0.103625 0.0138889 
-0.0852346 0.103448 -0.014 
-0.0850141 0.103593 -0.013 
-0.0845733 0.103881 -0.014 
-0.0843528 0.104026 -0.013 
-0.083912 0.104315 -0.014 
-0.0836915 0.104459 -0.013 
-0.0832507 0.104748 -0.014 
-0.0830302 0.104892 -0.013 
-0.0825894 0.105181 -0.014 
-0.0823689 0.105325 -0.013 
-0.0819281 0.105614 -0.014 
-0.0817076 0.105758 -0.013 
-0.0812668 0.106047 -0.014 
-0.0810463 0.106191 -0.013 
-0.0806055 0.10648 -0.014 
-0.080385 0.106624 -0.013 
-0.0799442 0.106913 -0.014 
-0.0797237 0.107058 -0.013 
-0.0792829 0.107346 -0.014 
-0.0852346 0.103448 -0.011 
-0.0850141 0.103593 -0.01 
-0.0845733 0.103881 -0.011 
-0.0843528 0.104026 -0.01 
-0.083912 0.104315 -0.011 
-0.0836915 0.104459 -0.01 
-0.0832507 0.104748 -0.011 
-0.0830302 0.104892 -0.01 
-0.0825894 0.105181 -0.011 
-0.0823689 0.105325 -0.01 
-0.0819281 0.105614 -0.011 
-0.0817076 0.105758 -0.01 
-0.0812668 0.106047 -0.011 
-0.0810463 0.106191 -0.01 
-0.0806055 0.10648 -0.011 
-0.080385 0.106624 -0.01 
-0.0799442 0.106913 -0.011 
-0.0852346 0.103448 -0.008 
-0.0850141 0.103593 -0.007 
-0.0845733 0.103881 -0.008 
-0.0843528 0.104026 -0.007 
-0.083912 0.104315 -0.008 
-0.0836915 0.104459 -0.007 
-0.0832507 0.104748 -0.008 
-0.0830302 0.104892 -0.007 
-0.0825894 0.105181 -0.008 
-0.0823689 0.105325 -0.007 
-0.0819281 0.105614 -0.008 
-0.0817076 0.105758 -0.007 
-0.0812668 0.106047 -0.008 
-0.0810463 0.106191 -0.007 
-0.0806055 0.10648 -0.008 
-0.0852346 0.103448 -0.005 
-0.0850141 0.103593 -0.004 
-0.0845733 0.103881 -0.005 
-0.0843528 0.104026 -0.004 
-0.083912 0.104315 -0.005 
-0.0836915 0.104459 -0.004 
-0.0832507 0.104748 -0.005 
-0.0830302 0.104892 -0.004 
-0.0825894 0.105181 -0.005 
-0.0823689 0.105325 -0.004 
-0.0819281 0.105614 -0.005 
-0.0817076 0.105758 -0.004 
-0.0812668 0.106047 -0.005 
-0.0852346 0.103448 -0.002 
-0.0850141 0.103593 -0.001 
-0.0845733 0.103881 -0.002 
-0.0843528 0.104026 -0.001 
-0.083912 0.104315 -0.002 
-0.0836915 0.104459 -0.001 
-0.0832507 0.104748 -0.002 
-0.0830302 0.104892 -0.001 
-0.0825894 0.105181 -0.002 
-0.0823689 0.105325 -0.001 
-0.0819281 0.105614 -0.002 
-0.0852346 0.103448 0.001 
-0.0850141 0.103593 0.002 
-0.0845733 0.103881 0.001 
-0.0843528 0.104026 0.002 
-0.083912 0.104315 0.001 
-0.0836915 0.104459 0.002 
-0.0832507 0.104748 0.001 
-0.0830302 0.104892 0.002 
-0.0825894 0.105181 0.001 
-0.0852346 0.103448 0.004 
-0.0850141 0.103593 0.005 
-0.0845733 0.103881 0.004 
-0.0843528 0.104026 0.005 
-0.083912 0.104315 0.004 
-0.0836915 0.104459 0.005 
-0.0832507 0.104748 0.004 
-0.0852346 0.103448 0.007 
-0.0850141 0.103593 0.008 
-0.0845733 0.103881 0.007 
-0.0843528 0.104026 0.008 
-0.083912 0.104315 0.007 
-0.0852346 0.103448 0.01 
-0.0850141 0.103593 0.011 
-0.0845733 0.103881 0.01 
-0.0852346 0.103448 0.013 
-0.0856675 0.103148 -0.013 
-0.0858801 0.102992 -0.011 
-0.0856675 0.103148 -0.01 
-0.0858801 0.102992 -0.008 
-0.0856675 0.103148 -0.007 
-0.0858801 0.102992 -0.005 
-0.0856675 0.103148 -0.004 
-0.0858801 0.102992 -0.002 
-0.0856675 0.103148 -0.001 
-0.0858801 0.102992 0.001 
-0.0856675 0.103148 0.002 
-0.0858801 0.102992 0.004 
-0.0856675 0.103148 0.005 
-0.0858801 0.102992 0.007 
-0.0856675 0.103148 0.008 
-0.0858801 0.102992 0.01 
-0.0856675 0.103148 0.011 
-0.0858801 0.102992 0.013 
-0.0856675 0.103148 0.014 
-0.0863051 0.102681 -0.01 
-0.0865177 0.102525 -0.008 
-0.0863051 0.102681 -0.007 
-0.0865177 0.102525 -0.005 
-0.0863051 0.102681 -0.004 
-0.0865177 0.102525 -0.002 
-0.0863051 0.102681 -0.001 
-0.0865177 0.102525 0.001 
-0.0863051 0.102681 0.002 
-0.0865177 0.102525 0.004 
-0.0863051 0.102681 0.005 
-0.0865177 0.102525 0.007 
-0.0863051 0.102681 0.008 
-0.0865177 0.102525 0.01 
-0.0863051 0.102681 0.011 
-0.0865177 0.102525 0.013 
-0.0863051 0.102681 0.014 
-0.0869427 0.102214 -0.007 
-0.0871553 0.102058 -0.005 
-0.0869427 0.102214 -0.004 
-0.0871553 0.102058 -0.002 
-0.0869427 0.102214 -0.001 
-0.0871553 0.102058 0.001 
-0.0869427 0.102214 0.002 
-0.0871553 0.102058 0.004 
-0.0869427 0.102214 0.005 
-0.0871553 0.102058 0.007 
-0.0869427 0.102214 0.008 
-0.0871553 0.102058 0.01 
-0.0869427 0.102214 0.011 
-0.0871553 0.102058 0.013 
-0.0869427 0.102214 0.014 
-0.0875803 0.101746 -0.004 
-0.0877929 0.101591 -0.002 
-0.0875803 0.101746 -0.001 
-0.0877929 0.101591 0.001 
-0.0875803 0.101746 0.002 
-0.0877929 0.101591 0.004 
-0.0875803 0.101746 0.005 
-0.0877929 0.101591 0.007 
-0.0875803 0.101746 0.008 
-0.0877929 0.101591 0.01 
-0.0875803 0.101746 0.011 
-0.0877929 0.101591 0.013 
-0.0875803 0.101746 0.014 
-0.0882179 0.101279 -0.001 
-0.0884305 0.101123 0.001 
-0.0882179 0.101279 0.002 
-0.0884305 0.101123 0.004 
-0.0882179 0.101279 0.005 
-0.0884305 0.101123 0.007 
-0.0882179 0.101279 0.008 
-0.0884305 0.101123 0.01 
-0.0882179 0.101279 0.011 
-0.0884305 0.101123 0.013 
-0.0882179 0.101279 0.014 
-0.0888555 0.100812 0.002 
-0.0890681 0.100656 0.004 
-0.0888555 0.100812 0.005 
-0.0890681 0.100656 0.007 
-0.0888555 0.100812 0.008 
-0.0890681 0.100656 0.01 
-0.0888555 0.100812 0.011 
-0.0890681 0.100656 0.013 
-0.0888555 0.100812 0.014 
-0.0894931 0.100344 0.005 
-0.0897057 0.100189 0.007 
-0.0894931 0.100344 0.008 
-0.0897057 0.100189 0.01 
-0.0894931 0.100344 0.011 
-0.0897057 0.100189 0.013 
-0.0894931 0.100344 0.014 
-0.0901307 0.0998771 0.008 
-0.0903433 0.0997214 0.01 
-0.0901307 0.0998771 0.011 
-0.0903433 0.0997214 0.013 
-0.0901307 0.0998771 0.014 
-0.0907683 0.0994098 0.011 
-0.0909809 0.0992541 0.013 
-0.0907683 0.0994098 0.014 
-0.0914059 0.0989425 0.014 
-0.0915948 0.0988041 -0.0138889 
-0.0913587 0.0989772 -0.0127778 
-0.0908864 0.0993233 -0.0138889 
-0.0906503 0.0994964 -0.0127778 
-0.090178 0.0998425 -0.0138889 
-0.0899418 0.100016 -0.0127778 
-0.0894695 0.100362 -0.0138889 
-0.0892334 0.100535 -0.0127778 
-0.0887611 0.100881 -0.0138889 
-0.0885249 0.101054 -0.0127778 
-0.0880526 0.1014 -0.0138889 
-0.0878165 0.101573 -0.0127778 
-0.0873442 0.101919 -0.0138889 
-0.087108 0.102092 -0.0127778 
-0.0866357 0.102439 -0.0138889 
-0.0863996 0.102612 -0.0127778 
-0.0859273 0.102958 -0.0138889 
-0.0915949 0.0988041 -0.0105556 
-0.0913587 0.0989772 -0.00944444 
-0.0908864 0.0993233 -0.0105556 
-0.0906503 0.0994964 -0.00944444 
-0.090178 0.0998425 -0.0105556 
-0.0899418 0.100016 -0.00944444 
-0.0894695 0.100362 -0.0105556 
-0.0892334 0.100535 -0.00944444 
-0.0887611 0.100881 -0.0105556 
-0.0885249 0.101054 -0.00944444 
-0.0880526 0.1014 -0.0105556 
-0.0878165 0.101573 -0.00944444 
-0.0873442 0.101919 -0.0105556 
-0.087108 0.102092 -0.00944444 
-0.0866357 0.102439 -0.0105556 
-0.0915948 0.0988041 -0.00722222 
-0.0913587 0.0989771 -0.00611111 
-0.0908864 0.0993233 -0.00722222 
-0.0906503 0.0994964 -0.00611111 
-0.090178 0.0998425 -0.00722222 
-0.0899418 0.100016 -0.00611111 
-0.0894695 0.100362 -0.00722222 
-0.0892334 0.100535 -0.00611111 
-0.0887611 0.100881 -0.00722222 
-0.0885249 0.101054 -0.00611111 
-0.0880526 0.1014 -0.00722222 
-0.0878165 0.101573 -0.00611111 
-0.0873442 0.101919 -0.00722222 
-0.0915949 0.0988041 -0.00388889 
-0.0913587 0.0989771 -0.00277778 
-0.0908864 0.0993233 -0.00388889 
-0.0906503 0.0994964 -0.00277778 
-0.090178 0.0998425 -0.00388889 
-0.0899418 0.100016 -0.00277778 
-0.0894695 0.100362 -0.00388889 
-0.0892334 0.100535 -0.00277778 
-0.0887611 0.100881 -0.00388889 
-0.0885249 0.101054 -0.00277778 
-0.0880526 0.1014 -0.00388889 
-0.0915948 0.0988041 -0.000555556 
-0.0913587 0.0989771 0.000555556 
-0.0908864 0.0993233 -0.000555556 
-0.0906503 0.0994964 0.000555556 
-0.090178 0.0998425 -0.000555556 
-0.0899418 0.100016 0.000555555 
-0.0894695 0.100362 -0.000555556 
-0.0892334 0.100535 0.000555556 
-0.0887611 0.100881 -0.000555556 
-0.0915949 0.0988041 0.00277778 
-0.0913587 0.0989771 0.00388889 
-0.0908864 0.0993233 0.00277778 
-0.0906503 0.0994964 0.00388889 
-0.090178 0.0998425 0.00277778 
-0.0899418 0.100016 0.00388889 
-0.0894695 0.100362 0.00277778 
-0.0915948 0.0988041 0.00611111 
-0.0913587 0.0989772 0.00722222 
-0.0908864 0.0993233 0.00611111 
-0.0906503 0.0994964 0.00722222 
-0.090178 0.0998425 0.00611111 
-0.0915949 0.0988041 0.00944445 
-0.0913587 0.0989772 0.0105556 
-0.0908864 0.0993233 0.00944445 
-0.0915948 0.0988041 0.0127778 
-0.092035 0.0984642 -0.013 
-0.0922391 0.0982975 -0.011 
-0.092035 0.0984642 -0.01 
-0.0922391 0.0982975 -0.008 
-0.092035 0.0984642 -0.007 
-0.0922391 0.0982975 -0.005 
-0.092035 0.0984642 -0.004 
-0.0922391 0.0982975 -0.002 
-0.092035 0.0984642 -0.001 
-0.0922391 0.0982975 0.001 
-0.092035 0.0984642 0.002 
-0.0922391 0.0982975 0.004 
-0.092035 0.0984642 0.005 
-0.0922391 0.0982975 0.007 
-0.092035 0.0984642 0.008 
-0.0922391 0.0982975 0.01 
-0.092035 0.0984642 0.011 
-0.0922391 0.0982975 0.013 
-0.092035 0.0984642 0.014 
-0.0926471 0.0979639 -0.01 
-0.0928512 0.0977972 -0.008 
-0.0926471 0.0979639 -0.007 
-0.0928512 0.0977972 -0.005 
-0.0926471 0.0979639 -0.004 
-0.0928512 0.0977972 -0.002 
