ply
format ascii 1.0
comment VCGLIB generated
element vertex 1411
property float x
property float y
property float z
element face 0
property list uchar int vertex_indices
end_header
-0.0749992 -0.0201072 -0.00296822 
-0.0749993 -0.0192039 -0.00322626 
-0.0749994 -0.0187523 -0.00374238 
-0.0749996 -0.017849 -0.00400042 
-0.0749997 -0.0173974 -0.00451654 
-0.0749999 -0.0164942 -0.00477459 
-0.0749999 -0.0160425 -0.0052907 
-0.0750001 -0.0151393 -0.00554875 
-0.0750002 -0.0146877 -0.00606486 
-0.0750004 -0.0137844 -0.00632291 
-0.0750005 -0.0133328 -0.00683903 
-0.0750006 -0.0124296 -0.00709707 
-0.0750007 -0.0119779 -0.00761319 
-0.0750009 -0.0110747 -0.00787123 
-0.075001 -0.0106231 -0.00838735 
-0.0750012 -0.00971982 -0.00864539 
-0.0750012 -0.00926818 -0.00916151 
-0.0750014 -0.00836495 -0.00941955 
-0.0750015 -0.00791331 -0.00993567 
-0.0750017 -0.00701008 -0.0101937 
-0.0750017 -0.00655844 -0.0107098 
-0.0750019 -0.0056552 -0.0109679 
-0.075002 -0.00520357 -0.011484 
-0.0750022 -0.00430033 -0.011742 
-0.0749991 -0.0205588 -0.0032263 
-0.0749992 -0.0201071 -0.00374241 
-0.0749993 -0.0192039 -0.00400046 
-0.0749994 -0.0187522 -0.00451658 
-0.0749996 -0.017849 -0.00477462 
-0.0749997 -0.0173974 -0.00529074 
-0.0749999 -0.0164941 -0.00554878 
-0.0749999 -0.0160425 -0.0060649 
-0.0750001 -0.0151393 -0.00632294 
-0.0750002 -0.0146876 -0.00683906 
-0.0750004 -0.0137844 -0.0070971 
-0.0750005 -0.0133328 -0.00761322 
-0.0750006 -0.0124295 -0.00787126 
-0.0750007 -0.0119779 -0.00838738 
-0.0750009 -0.0110747 -0.00864543 
-0.075001 -0.010623 -0.00916154 
-0.0750012 -0.00971979 -0.00941959 
-0.0750012 -0.00926815 -0.0099357 
-0.0750014 -0.00836491 -0.0101937 
-0.0750015 -0.00791328 -0.0107099 
-0.0750017 -0.00701004 -0.0109679 
-0.0750017 -0.00655841 -0.011484 
-0.0750019 -0.00565517 -0.0117421 
-0.0749991 -0.0205587 -0.00400049 
-0.0749992 -0.0201071 -0.00451661 
-0.0749993 -0.0192039 -0.00477465 
-0.0749994 -0.0187522 -0.00529077 
-0.0749996 -0.017849 -0.00554881 
-0.0749997 -0.0173973 -0.00606493 
-0.0749999 -0.0164941 -0.00632297 
-0.0749999 -0.0160425 -0.00683909 
-0.0750001 -0.0151392 -0.00709713 
-0.0750002 -0.0146876 -0.00761325 
-0.0750004 -0.0137844 -0.00787129 
-0.0750005 -0.0133327 -0.00838741 
-0.0750006 -0.0124295 -0.00864546 
-0.0750007 -0.0119779 -0.00916157 
-0.0750009 -0.0110746 -0.00941962 
-0.075001 -0.010623 -0.00993574 
-0.0750011 -0.00971975 -0.0101938 
-0.0750012 -0.00926812 -0.0107099 
-0.0750014 -0.00836488 -0.0109679 
-0.0750015 -0.00791325 -0.0114841 
-0.0750017 -0.00701001 -0.0117421 
-0.0749991 -0.0205587 -0.00477468 
-0.0749992 -0.0201071 -0.0052908 
-0.0749993 -0.0192038 -0.00554884 
-0.0749994 -0.0187522 -0.00606496 
-0.0749996 -0.0178489 -0.00632301 
-0.0749997 -0.0173973 -0.00683912 
-0.0749999 -0.0164941 -0.00709717 
-0.075 -0.0160424 -0.00761328 
-0.0750001 -0.0151392 -0.00787133 
-0.0750002 -0.0146876 -0.00838745 
-0.0750004 -0.0137843 -0.00864549 
-0.0750005 -0.0133327 -0.00916161 
-0.0750006 -0.0124295 -0.00941965 
-0.0750007 -0.0119778 -0.00993577 
-0.0750009 -0.0110746 -0.0101938 
-0.075001 -0.010623 -0.0107099 
-0.0750012 -0.00971972 -0.010968 
-0.0750012 -0.00926809 -0.0114841 
-0.0750014 -0.00836485 -0.0117421 
-0.0749991 -0.0205587 -0.00554888 
-0.0749992 -0.020107 -0.006065 
-0.0749993 -0.0192038 -0.00632304 
-0.0749994 -0.0187522 -0.00683916 
-0.0749996 -0.0178489 -0.0070972 
-0.0749997 -0.0173973 -0.00761332 
-0.0749999 -0.016494 -0.00787136 
-0.0749999 -0.0160424 -0.00838748 
-0.0750001 -0.0151392 -0.00864552 
-0.0750002 -0.0146875 -0.00916164 
-0.0750004 -0.0137843 -0.00941968 
-0.0750005 -0.0133327 -0.0099358 
-0.0750006 -0.0124294 -0.0101938 
-0.0750007 -0.0119778 -0.01071 
-0.0750009 -0.0110746 -0.010968 
-0.075001 -0.0106229 -0.0114841 
-0.0750012 -0.00971969 -0.0117422 
-0.0749991 -0.0205586 -0.00632307 
-0.0749992 -0.020107 -0.00683919 
-0.0749993 -0.0192038 -0.00709723 
-0.0749994 -0.0187521 -0.00761335 
-0.0749996 -0.0178489 -0.00787139 
-0.0749997 -0.0173972 -0.00838751 
-0.0749999 -0.016494 -0.00864555 
-0.0749999 -0.0160424 -0.00916167 
-0.0750001 -0.0151391 -0.00941971 
-0.0750002 -0.0146875 -0.00993583 
-0.0750004 -0.0137843 -0.0101939 
-0.0750005 -0.0133326 -0.01071 
-0.0750006 -0.0124294 -0.010968 
-0.0750007 -0.0119778 -0.0114842 
-0.0750009 -0.0110745 -0.0117422 
-0.0749991 -0.0205586 -0.00709726 
-0.0749992 -0.020107 -0.00761338 
-0.0749993 -0.0192037 -0.00787142 
-0.0749994 -0.0187521 -0.00838754 
-0.0749996 -0.0178489 -0.00864558 
-0.0749997 -0.0173972 -0.0091617 
-0.0749999 -0.016494 -0.00941975 
-0.0749999 -0.0160423 -0.00993586 
-0.0750001 -0.0151391 -0.0101939 
-0.0750002 -0.0146875 -0.01071 
-0.0750004 -0.0137842 -0.0109681 
-0.0750005 -0.0133326 -0.0114842 
-0.0750006 -0.0124294 -0.0117422 
-0.0749991 -0.0205586 -0.00787146 
-0.0749992 -0.0201069 -0.00838757 
-0.0749993 -0.0192037 -0.00864562 
-0.0749994 -0.0187521 -0.00916174 
-0.0749996 -0.0178488 -0.00941978 
-0.0749997 -0.0173972 -0.0099359 
-0.0749999 -0.0164939 -0.0101939 
-0.075 -0.0160423 -0.0107101 
-0.0750001 -0.0151391 -0.0109681 
-0.0750002 -0.0146874 -0.0114842 
-0.0750004 -0.0137842 -0.0117423 
-0.0749991 -0.0205585 -0.00864565 
-0.0749992 -0.0201069 -0.00916177 
-0.0749993 -0.0192037 -0.00941981 
-0.0749994 -0.018752 -0.00993593 
-0.0749996 -0.0178488 -0.010194 
-0.0749997 -0.0173972 -0.0107101 
-0.0749999 -0.0164939 -0.0109681 
-0.0749999 -0.0160423 -0.0114843 
-0.0750001 -0.015139 -0.0117423 
-0.0749991 -0.0205585 -0.00941984 
-0.0749992 -0.0201069 -0.00993596 
-0.0749993 -0.0192036 -0.010194 
-0.0749994 -0.018752 -0.0107101 
-0.0749996 -0.0178488 -0.0109682 
-0.0749997 -0.0173971 -0.0114843 
-0.0749999 -0.0164939 -0.0117423 
-0.0749991 -0.0205585 -0.010194 
-0.0749992 -0.0201068 -0.0107102 
-0.0749993 -0.0192036 -0.0109682 
-0.0749994 -0.018752 -0.0114843 
-0.0749996 -0.0178487 -0.0117424 
-0.0749991 -0.0205584 -0.0109682 
-0.0749992 -0.0201068 -0.0114843 
-0.0749993 -0.0192036 -0.0117424 
-0.0749991 -0.0205584 -0.0117424 
-0.0749992 -0.020136 0.0117495 
-0.0749993 -0.019261 0.0114995 
-0.0749994 -0.0188235 0.0117496 
-0.0749996 -0.0179485 0.0114996 
-0.0749997 -0.017511 0.0117496 
-0.0749998 -0.016636 0.0114996 
-0.0749999 -0.0161985 0.0117496 
-0.0750001 -0.0153235 0.0114996 
-0.0750002 -0.014886 0.0117496 
-0.0750003 -0.014011 0.0114997 
-0.0750004 -0.0135735 0.0117497 
-0.0750006 -0.0126985 0.0114997 
-0.0750007 -0.012261 0.0117497 
-0.0750008 -0.011386 0.0114997 
-0.0750009 -0.0109485 0.0117497 
-0.0750011 -0.0100735 0.0114998 
-0.0750012 -0.00963599 0.0117498 
-0.0750013 -0.00876098 0.0114998 
-0.0750014 -0.00832349 0.0117498 
-0.0750016 -0.00744848 0.0114998 
-0.0750017 -0.00701099 0.0117498 
-0.0750018 -0.00613598 0.0114999 
-0.0750019 -0.00569849 0.0117499 
-0.0750021 -0.00482348 0.0114999 
-0.0750022 -0.00438599 0.0117499 
-0.0750023 -0.00351098 0.0114999 
-0.0750024 -0.00307349 0.0117499 
-0.0750026 -0.00219848 0.0114999 
-0.0750027 -0.00176099 0.01175 
-0.0750028 -0.000885979 0.0115 
-0.0750029 -0.00044849 0.01175 
-0.0750031 0.000426521 0.0115 
-0.0750032 0.00086401 0.01175 
-0.0750033 0.00173902 0.0115 
-0.0750034 0.00217651 0.0117501 
-0.0750036 0.00305152 0.0115001 
-0.0750037 0.00348901 0.0117501 
-0.0750038 0.00436402 0.0115001 
-0.0750039 0.00480151 0.0117501 
-0.0750041 0.00567652 0.0115001 
-0.0750042 0.00611401 0.0117501 
-0.0750043 0.00698902 0.0115002 
-0.0750044 0.00742651 0.0117502 
-0.0750046 0.00830152 0.0115002 
-0.0750047 0.00873901 0.0117502 
-0.0750048 0.00961402 0.0115002 
-0.0750049 0.0100515 0.0117502 
-0.0750051 0.0109265 0.0115003 
-0.0750052 0.011364 0.0117503 
-0.0750053 0.012239 0.0115003 
-0.0750054 0.0126765 0.0117503 
-0.0750056 0.0135515 0.0115003 
-0.0750057 0.013989 0.0117503 
-0.0750058 0.014864 0.0115004 
-0.0750059 0.0153015 0.0117504 
-0.0750061 0.0161765 0.0115004 
-0.0750062 0.016614 0.0117504 
-0.0750063 0.017489 0.0115004 
-0.0750064 0.0179265 0.0117504 
-0.0750066 0.0188015 0.0115004 
-0.0750067 0.019239 0.0117505 
-0.0750068 0.020114 0.0115005 
-0.0750069 0.0205515 0.0117505 
-0.0749994 -0.0188235 0.0109996 
-0.0749996 -0.0179484 0.0107496 
-0.0749997 -0.017511 0.0109996 
-0.0749998 -0.0166359 0.0107496 
-0.0749999 -0.0161985 0.0109996 
-0.0750001 -0.0153234 0.0107496 
-0.0750002 -0.014886 0.0109996 
-0.0750003 -0.0140109 0.0107497 
-0.0750004 -0.0135735 0.0109997 
-0.0750006 -0.0126984 0.0107497 
-0.0750007 -0.012261 0.0109997 
-0.0750008 -0.0113859 0.0107497 
-0.0750009 -0.0109485 0.0109997 
-0.0750011 -0.0100734 0.0107498 
-0.0750012 -0.00963596 0.0109998 
-0.0750013 -0.00876095 0.0107498 
-0.0750014 -0.00832346 0.0109998 
-0.0750016 -0.00744845 0.0107498 
-0.0750017 -0.00701096 0.0109998 
-0.0750018 -0.00613595 0.0107499 
-0.0750019 -0.00569846 0.0109999 
-0.0750021 -0.00482345 0.0107499 
-0.0750022 -0.00438596 0.0109999 
-0.0750023 -0.00351095 0.0107499 
-0.0750024 -0.00307346 0.0109999 
-0.0750026 -0.00219845 0.0107499 
-0.0750027 -0.00176096 0.011 
-0.0750028 -0.000885948 0.01075 
-0.0750029 -0.000448459 0.011 
-0.0750031 0.000426552 0.01075 
-0.0750032 0.000864042 0.011 
-0.0750033 0.00173905 0.01075 
-0.0750034 0.00217654 0.0110001 
-0.0750036 0.00305155 0.0107501 
-0.0750037 0.00348904 0.0110001 
-0.0750038 0.00436405 0.0107501 
-0.0750039 0.00480154 0.0110001 
-0.0750041 0.00567655 0.0107501 
-0.0750042 0.00611404 0.0110001 
-0.0750043 0.00698905 0.0107502 
-0.0750044 0.00742654 0.0110002 
-0.0750046 0.00830155 0.0107502 
-0.0750047 0.00873904 0.0110002 
-0.0750048 0.00961405 0.0107502 
-0.0750049 0.0100515 0.0110002 
-0.0750051 0.0109266 0.0107503 
-0.0750052 0.011364 0.0110003 
-0.0750053 0.0122391 0.0107503 
-0.0750054 0.0126765 0.0110003 
-0.0750056 0.0135516 0.0107503 
-0.0750057 0.013989 0.0110003 
-0.0750058 0.0148641 0.0107504 
-0.0750059 0.0153015 0.0110004 
-0.0750061 0.0161766 0.0107504 
-0.0750062 0.016614 0.0110004 
-0.0750063 0.0174891 0.0107504 
-0.0750064 0.0179265 0.0110004 
-0.0750066 0.0188016 0.0107504 
-0.0750067 0.019239 0.0110005 
-0.0750068 0.0201141 0.0107505 
-0.0750069 0.0205515 0.0110005 
-0.0749997 -0.0175109 0.0102496 
-0.0749998 -0.0166359 0.0099996 
-0.0749999 -0.0161984 0.0102496 
-0.0750001 -0.0153234 0.00999963 
-0.0750002 -0.0148859 0.0102496 
-0.0750003 -0.0140109 0.00999967 
-0.0750004 -0.0135734 0.0102497 
-0.0750006 -0.0126984 0.0099997 
-0.0750007 -0.0122609 0.0102497 
-0.0750008 -0.0113859 0.00999973 
-0.0750009 -0.0109484 0.0102497 
-0.0750011 -0.0100734 0.00999976 
-0.0750012 -0.00963593 0.0102498 
-0.0750013 -0.00876092 0.00999979 
-0.0750014 -0.00832343 0.0102498 
-0.0750016 -0.00744842 0.00999982 
-0.0750017 -0.00701093 0.0102498 
-0.0750018 -0.00613592 0.00999985 
-0.0750019 -0.00569843 0.0102499 
-0.0750021 -0.00482342 0.00999989 
-0.0750022 -0.00438593 0.0102499 
-0.0750023 -0.00351092 0.00999992 
-0.0750024 -0.00307343 0.0102499 
-0.0750026 -0.00219842 0.00999995 
-0.0750027 -0.00176093 0.01025 
-0.0750028 -0.000885917 0.00999998 
-0.0750029 -0.000448428 0.01025 
-0.0750031 0.000426583 0.01 
-0.0750032 0.000864073 0.01025 
-0.0750033 0.00173908 0.01 
-0.0750034 0.00217657 0.0102501 
-0.0750036 0.00305158 0.0100001 
-0.0750037 0.00348907 0.0102501 
-0.0750038 0.00436408 0.0100001 
-0.0750039 0.00480157 0.0102501 
-0.0750041 0.00567658 0.0100001 
-0.0750042 0.00611407 0.0102501 
-0.0750043 0.00698908 0.0100002 
-0.0750044 0.00742657 0.0102502 
-0.0750046 0.00830158 0.0100002 
-0.0750047 0.00873907 0.0102502 
-0.0750048 0.00961408 0.0100002 
-0.0750049 0.0100516 0.0102502 
-0.0750051 0.0109266 0.0100003 
-0.0750052 0.0113641 0.0102503 
-0.0750053 0.0122391 0.0100003 
-0.0750054 0.0126766 0.0102503 
-0.0750056 0.0135516 0.0100003 
-0.0750057 0.0139891 0.0102503 
-0.0750058 0.0148641 0.0100004 
-0.0750059 0.0153016 0.0102504 
-0.0750061 0.0161766 0.0100004 
-0.0750062 0.0166141 0.0102504 
-0.0750063 0.0174891 0.0100004 
-0.0750064 0.0179266 0.0102504 
-0.0750066 0.0188016 0.0100004 
-0.0750067 0.0192391 0.0102505 
-0.0750068 0.0201141 0.0100005 
-0.0750069 0.0205516 0.0102505 
-0.0749999 -0.0161984 0.00949962 
-0.0750001 -0.0153234 0.00924964 
-0.0750002 -0.0148859 0.00949965 
-0.0750003 -0.0140109 0.00924967 
-0.0750004 -0.0135734 0.00949968 
-0.0750006 -0.0126984 0.0092497 
-0.0750007 -0.0122609 0.00949971 
-0.0750008 -0.0113859 0.00924973 
-0.0750009 -0.0109484 0.00949974 
-0.0750011 -0.0100734 0.00924976 
-0.0750012 -0.0096359 0.00949977 
-0.0750013 -0.00876089 0.00924979 
-0.0750014 -0.0083234 0.0094998 
-0.0750016 -0.00744839 0.00924982 
-0.0750017 -0.0070109 0.00949983 
-0.0750018 -0.00613588 0.00924985 
-0.0750019 -0.0056984 0.00949986 
-0.0750021 -0.00482338 0.00924988 
-0.0750022 -0.0043859 0.0094999 
-0.0750023 -0.00351088 0.00924992 
-0.0750024 -0.0030734 0.00949993 
-0.0750026 -0.00219839 0.00924995 
-0.0750027 -0.0017609 0.00949996 
-0.0750028 -0.000885885 0.00924998 
-0.0750029 -0.000448396 0.00949999 
-0.0750031 0.000426615 0.00925001 
-0.0750032 0.000864104 0.00950002 
-0.0750033 0.00173911 0.00925004 
-0.0750034 0.00217661 0.00950005 
-0.0750036 0.00305161 0.00925007 
-0.0750037 0.00348911 0.00950008 
-0.0750038 0.00436411 0.0092501 
-0.0750039 0.0048016 0.00950011 
-0.0750041 0.00567661 0.00925014 
-0.0750042 0.0061141 0.00950015 
-0.0750043 0.00698911 0.00925017 
-0.0750044 0.00742661 0.00950018 
-0.0750046 0.00830161 0.0092502 
-0.0750047 0.0087391 0.00950021 
-0.0750048 0.00961411 0.00925023 
-0.0750049 0.0100516 0.00950024 
-0.0750051 0.0109266 0.00925026 
-0.0750052 0.0113641 0.00950027 
-0.0750053 0.0122391 0.00925029 
-0.0750054 0.0126766 0.0095003 
-0.0750056 0.0135516 0.00925032 
-0.0750057 0.0139891 0.00950033 
-0.0750058 0.0148641 0.00925035 
-0.0750059 0.0153016 0.00950037 
-0.0750061 0.0161766 0.00925039 
-0.0750062 0.0166141 0.0095004 
-0.0750063 0.0174891 0.00925042 
-0.0750064 0.0179266 0.00950043 
-0.0750066 0.0188016 0.00925045 
-0.0750067 0.0192391 0.00950046 
-0.0750068 0.0201141 0.00925048 
-0.0750069 0.0205516 0.00950049 
-0.0750002 -0.0148859 0.00874965 
-0.0750003 -0.0140109 0.00849967 
-0.0750004 -0.0135734 0.00874968 
-0.0750006 -0.0126984 0.0084997 
-0.0750007 -0.0122609 0.00874971 
-0.0750008 -0.0113859 0.00849973 
-0.0750009 -0.0109484 0.00874974 
-0.0750011 -0.0100734 0.00849976 
-0.0750012 -0.00963587 0.00874977 
-0.0750013 -0.00876085 0.00849979 
-0.0750014 -0.00832337 0.0087498 
-0.0750016 -0.00744835 0.00849982 
-0.0750017 -0.00701087 0.00874983 
-0.0750018 -0.00613585 0.00849985 
-0.0750019 -0.00569837 0.00874986 
-0.0750021 -0.00482335 0.00849988 
-0.0750022 -0.00438587 0.0087499 
-0.0750023 -0.00351085 0.00849992 
-0.0750024 -0.00307337 0.00874993 
-0.0750026 -0.00219835 0.00849995 
-0.0750027 -0.00176087 0.00874996 
-0.0750028 -0.000885854 0.00849998 
-0.0750029 -0.000448366 0.00874999 
-0.0750031 0.000426645 0.00850001 
-0.0750032 0.000864135 0.00875002 
-0.0750033 0.00173915 0.00850004 
-0.0750034 0.00217664 0.00875005 
-0.0750036 0.00305165 0.00850007 
-0.0750037 0.00348914 0.00875008 
-0.0750038 0.00436414 0.0085001 
-0.0750039 0.00480164 0.00875011 
-0.0750041 0.00567665 0.00850014 
-0.0750042 0.00611414 0.00875015 
-0.0750043 0.00698915 0.00850017 
-0.0750044 0.00742664 0.00875018 
-0.0750046 0.00830165 0.0085002 
-0.0750047 0.00873914 0.00875021 
-0.0750048 0.00961415 0.00850023 
-0.0750049 0.0100516 0.00875024 
-0.0750051 0.0109266 0.00850026 
-0.0750052 0.0113641 0.00875027 
-0.0750053 0.0122391 0.00850029 
-0.0750054 0.0126766 0.0087503 
-0.0750056 0.0135516 0.00850032 
-0.0750057 0.0139891 0.00875033 
-0.0750058 0.0148641 0.00850035 
-0.0750059 0.0153016 0.00875037 
-0.0750061 0.0161766 0.00850039 
-0.0750062 0.0166141 0.0087504 
-0.0750063 0.0174891 0.00850042 
-0.0750064 0.0179266 0.00875043 
-0.0750066 0.0188016 0.00850045 
-0.0750067 0.0192391 0.00875046 
-0.0750068 0.0201141 0.00850048 
-0.0750069 0.0205516 0.00875049 
-0.0750004 -0.0135733 0.00799968 
-0.0750006 -0.0126983 0.0077497 
-0.0750007 -0.0122608 0.00799971 
-0.0750008 -0.0113858 0.00774973 
-0.0750009 -0.0109483 0.00799974 
-0.0750011 -0.0100733 0.00774976 
-0.0750012 -0.00963583 0.00799977 
-0.0750013 -0.00876082 0.00774979 
-0.0750014 -0.00832333 0.0079998 
-0.0750016 -0.00744832 0.00774982 
-0.0750017 -0.00701083 0.00799983 
-0.0750018 -0.00613582 0.00774985 
-0.0750019 -0.00569833 0.00799987 
-0.0750021 -0.00482332 0.00774989 
-0.0750022 -0.00438583 0.0079999 
-0.0750023 -0.00351082 0.00774992 
-0.0750024 -0.00307333 0.00799993 
-0.0750026 -0.00219832 0.00774995 
-0.0750027 -0.00176083 0.00799996 
-0.0750028 -0.000885823 0.00774998 
-0.0750029 -0.000448334 0.00799999 
-0.0750031 0.000426677 0.00775001 
-0.0750032 0.000864167 0.00800002 
-0.0750033 0.00173918 0.00775004 
-0.0750034 0.00217667 0.00800005 
-0.0750036 0.00305168 0.00775007 
-0.0750037 0.00348917 0.00800008 
-0.0750038 0.00436418 0.00775011 
-0.0750039 0.00480167 0.00800011 
-0.0750041 0.00567668 0.00775014 
-0.0750042 0.00611417 0.00800015 
-0.0750043 0.00698918 0.00775017 
-0.0750044 0.00742667 0.00800018 
-0.0750046 0.00830168 0.0077502 
-0.0750047 0.00873917 0.00800021 
-0.0750048 0.00961418 0.00775023 
-0.0750049 0.0100517 0.00800024 
-0.0750051 0.0109267 0.00775026 
-0.0750052 0.0113642 0.00800027 
-0.0750053 0.0122392 0.00775029 
-0.0750054 0.0126767 0.0080003 
-0.0750056 0.0135517 0.00775032 
-0.0750057 0.0139892 0.00800033 
-0.0750058 0.0148642 0.00775035 
-0.0750059 0.0153017 0.00800037 
-0.0750061 0.0161767 0.00775039 
-0.0750062 0.0166142 0.0080004 
-0.0750063 0.0174892 0.00775042 
-0.0750064 0.0179267 0.00800043 
-0.0750066 0.0188017 0.00775045 
-0.0750067 0.0192392 0.00800046 
-0.0750068 0.0201142 0.00775048 
-0.0750069 0.0205517 0.00800049 
-0.0750007 -0.0122608 0.00724971 
-0.0750008 -0.0113858 0.00699973 
-0.0750009 -0.0109483 0.00724974 
-0.0750011 -0.0100733 0.00699976 
-0.0750012 -0.0096358 0.00724977 
-0.0750013 -0.00876079 0.00699979 
-0.0750014 -0.0083233 0.0072498 
-0.0750016 -0.00744829 0.00699982 
-0.0750017 -0.0070108 0.00724983 
-0.0750018 -0.00613579 0.00699985 
-0.0750019 -0.0056983 0.00724986 
-0.0750021 -0.00482329 0.00699988 
-0.0750022 -0.0043858 0.0072499 
-0.0750023 -0.00351079 0.00699992 
-0.0750024 -0.0030733 0.00724993 
-0.0750026 -0.00219829 0.00699995 
-0.0750027 -0.0017608 0.00724996 
-0.0750028 -0.000885792 0.00699998 
-0.0750029 -0.000448303 0.00724999 
-0.0750031 0.000426708 0.00700001 
-0.0750032 0.000864198 0.00725002 
-0.0750033 0.00173921 0.00700004 
-0.0750034 0.0021767 0.00725005 
-0.0750036 0.00305171 0.00700007 
-0.0750037 0.0034892 0.00725008 
-0.0750038 0.00436421 0.0070001 
-0.0750039 0.0048017 0.00725011 
-0.0750041 0.00567671 0.00700014 
-0.0750042 0.0061142 0.00725015 
-0.0750043 0.00698921 0.00700017 
-0.0750044 0.0074267 0.00725018 
-0.0750046 0.00830171 0.0070002 
-0.0750047 0.0087392 0.00725021 
-0.0750048 0.00961421 0.00700023 
-0.0750049 0.0100517 0.00725024 
-0.0750051 0.0109267 0.00700026 
-0.0750052 0.0113642 0.00725027 
-0.0750053 0.0122392 0.00700029 
-0.0750054 0.0126767 0.0072503 
-0.0750056 0.0135517 0.00700032 
-0.0750057 0.0139892 0.00725033 
-0.0750058 0.0148642 0.00700035 
-0.0750059 0.0153017 0.00725036 
-0.0750061 0.0161767 0.00700039 
-0.0750062 0.0166142 0.0072504 
-0.0750063 0.0174892 0.00700042 
-0.0750064 0.0179267 0.00725043 
-0.0750066 0.0188017 0.00700045 
-0.0750067 0.0192392 0.00725046 
-0.0750068 0.0201142 0.00700048 
-0.0750069 0.0205517 0.00725049 
-0.0750009 -0.0109483 0.00649974 
-0.0750011 -0.0100733 0.00624976 
-0.0750012 -0.00963577 0.00649977 
-0.0750013 -0.00876076 0.00624979 
-0.0750014 -0.00832327 0.0064998 
-0.0750016 -0.00744826 0.00624982 
-0.0750017 -0.00701077 0.00649983 
-0.0750018 -0.00613576 0.00624985 
-0.0750019 -0.00569827 0.00649987 
-0.0750021 -0.00482326 0.00624989 
-0.0750022 -0.00438577 0.0064999 
-0.0750023 -0.00351076 0.00624992 
-0.0750024 -0.00307327 0.00649993 
-0.0750026 -0.00219826 0.00624995 
-0.0750027 -0.00176077 0.00649996 
-0.0750028 -0.000885761 0.00624998 
-0.0750029 -0.000448272 0.00649999 
-0.0750031 0.000426739 0.00625001 
-0.0750032 0.000864229 0.00650002 
-0.0750033 0.00173924 0.00625004 
-0.0750034 0.00217673 0.00650005 
-0.0750036 0.00305174 0.00625007 
-0.0750037 0.00348923 0.00650008 
-0.0750038 0.00436424 0.0062501 
-0.0750039 0.00480173 0.00650011 
-0.0750041 0.00567674 0.00625014 
-0.0750042 0.00611423 0.00650015 
-0.0750043 0.00698924 0.00625017 
-0.0750044 0.00742673 0.00650018 
-0.0750046 0.00830174 0.0062502 
-0.0750047 0.00873923 0.00650021 
-0.0750048 0.00961424 0.00625023 
-0.0750049 0.0100517 0.00650024 
-0.0750051 0.0109267 0.00625026 
-0.0750052 0.0113642 0.00650027 
-0.0750053 0.0122392 0.00625029 
-0.0750054 0.0126767 0.0065003 
-0.0750056 0.0135517 0.00625032 
-0.0750057 0.0139892 0.00650033 
-0.0750058 0.0148642 0.00625035 
-0.0750059 0.0153017 0.00650037 
-0.0750061 0.0161767 0.00625039 
-0.0750062 0.0166142 0.0065004 
-0.0750063 0.0174892 0.00625042 
-0.0750064 0.0179267 0.00650043 
-0.0750066 0.0188017 0.00625045 
-0.0750067 0.0192392 0.00650046 
-0.0750068 0.0201142 0.00625048 
-0.0750069 0.0205517 0.00650049 
-0.0750012 -0.00963574 0.00574977 
-0.0750013 -0.00876073 0.00549979 
-0.0750014 -0.00832324 0.0057498 
-0.0750016 -0.00744823 0.00549982 
-0.0750017 -0.00701074 0.00574983 
-0.0750018 -0.00613573 0.00549985 
-0.0750019 -0.00569824 0.00574986 
-0.0750021 -0.00482323 0.00549988 
-0.0750022 -0.00438574 0.0057499 
-0.0750023 -0.00351073 0.00549992 
-0.0750024 -0.00307324 0.00574993 
-0.0750026 -0.00219823 0.00549995 
-0.0750027 -0.00176074 0.00574996 
-0.0750028 -0.00088573 0.00549998 
-0.0750029 -0.000448241 0.00574999 
-0.0750031 0.00042677 0.00550001 
-0.0750032 0.00086426 0.00575002 
-0.0750033 0.00173927 0.00550004 
-0.0750034 0.00217676 0.00575005 
-0.0750036 0.00305177 0.00550007 
-0.0750037 0.00348926 0.00575008 
-0.0750038 0.00436427 0.0055001 
-0.0750039 0.00480176 0.00575012 
-0.0750041 0.00567677 0.00550014 
-0.0750042 0.00611426 0.00575015 
-0.0750043 0.00698927 0.00550017 
-0.0750044 0.00742676 0.00575018 
-0.0750046 0.00830177 0.0055002 
-0.0750047 0.00873926 0.00575021 
-0.0750048 0.00961427 0.00550023 
-0.0750049 0.0100518 0.00575024 
-0.0750051 0.0109268 0.00550026 
-0.0750052 0.0113643 0.00575027 
-0.0750053 0.0122393 0.00550029 
-0.0750054 0.0126768 0.0057503 
-0.0750056 0.0135518 0.00550032 
-0.0750057 0.0139893 0.00575033 
-0.0750058 0.0148643 0.00550035 
-0.0750059 0.0153018 0.00575037 
-0.0750061 0.0161768 0.00550039 
-0.0750062 0.0166143 0.0057504 
-0.0750063 0.0174893 0.00550042 
-0.0750064 0.0179268 0.00575043 
-0.0750066 0.0188018 0.00550045 
-0.0750067 0.0192393 0.00575046 
-0.0750068 0.0201143 0.00550048 
-0.0750069 0.0205518 0.00575049 
-0.0750014 -0.00832321 0.0049998 
-0.0750016 -0.0074482 0.00474982 
-0.0750017 -0.00701071 0.00499983 
-0.0750018 -0.0061357 0.00474985 
-0.0750019 -0.00569821 0.00499986 
-0.0750021 -0.0048232 0.00474988 
-0.0750022 -0.00438571 0.0049999 
-0.0750023 -0.0035107 0.00474992 
-0.0750024 -0.00307321 0.00499993 
-0.0750026 -0.0021982 0.00474995 
-0.0750027 -0.00176071 0.00499996 
-0.0750028 -0.000885698 0.00474998 
-0.0750029 -0.00044821 0.00499999 
-0.0750031 0.000426802 0.00475001 
-0.0750032 0.000864291 0.00500002 
-0.0750033 0.0017393 0.00475004 
-0.0750034 0.00217679 0.00500005 
-0.0750036 0.0030518 0.00475007 
-0.0750037 0.00348929 0.00500008 
-0.0750038 0.0043643 0.0047501 
-0.0750039 0.00480179 0.00500011 
-0.0750041 0.0056768 0.00475014 
-0.0750042 0.00611429 0.00500015 
-0.0750043 0.0069893 0.00475017 
-0.0750044 0.00742679 0.00500018 
-0.0750046 0.0083018 0.0047502 
-0.0750047 0.00873929 0.00500021 
-0.0750048 0.0096143 0.00475023 
-0.0750049 0.0100518 0.00500024 
-0.0750051 0.0109268 0.00475026 
-0.0750052 0.0113643 0.00500027 
-0.0750053 0.0122393 0.00475029 
-0.0750054 0.0126768 0.0050003 
-0.0750056 0.0135518 0.00475032 
-0.0750057 0.0139893 0.00500033 
-0.0750058 0.0148643 0.00475035 
-0.0750059 0.0153018 0.00500036 
-0.0750061 0.0161768 0.00475039 
-0.0750062 0.0166143 0.0050004 
-0.0750063 0.0174893 0.00475042 
-0.0750064 0.0179268 0.00500043 
-0.0750066 0.0188018 0.00475045 
-0.0750067 0.0192393 0.00500046 
-0.0750068 0.0201143 0.00475048 
-0.0750069 0.0205518 0.00500049 
-0.0750017 -0.00701068 0.00424983 
-0.0750018 -0.00613567 0.00399985 
-0.0750019 -0.00569818 0.00424987 
-0.0750021 -0.00482317 0.00399988 
-0.0750022 -0.00438568 0.0042499 
-0.0750023 -0.00351067 0.00399992 
-0.0750024 -0.00307318 0.00424993 
-0.0750026 -0.00219817 0.00399995 
-0.0750027 -0.00176068 0.00424996 
-0.0750028 -0.000885666 0.00399998 
-0.0750029 -0.000448178 0.00424999 
-0.0750031 0.000426834 0.00400001 
-0.0750032 0.000864322 0.00425002 
-0.0750033 0.00173933 0.00400004 
-0.0750034 0.00217682 0.00425005 
-0.0750036 0.00305183 0.00400007 
-0.0750037 0.00348932 0.00425008 
-0.0750038 0.00436433 0.0040001 
-0.0750039 0.00480182 0.00425011 
-0.0750041 0.00567683 0.00400014 
-0.0750042 0.00611432 0.00425015 
-0.0750043 0.00698933 0.00400017 
-0.0750044 0.00742682 0.00425018 
-0.0750046 0.00830183 0.0040002 
-0.0750047 0.00873932 0.00425021 
-0.0750048 0.00961433 0.00400023 
-0.0750049 0.0100518 0.00425024 
-0.0750051 0.0109268 0.00400026 
-0.0750052 0.0113643 0.00425027 
-0.0750053 0.0122393 0.00400029 
-0.0750054 0.0126768 0.0042503 
-0.0750056 0.0135518 0.00400032 
-0.0750057 0.0139893 0.00425033 
-0.0750058 0.0148643 0.00400035 
-0.0750059 0.0153018 0.00425037 
-0.0750061 0.0161768 0.00400039 
-0.0750062 0.0166143 0.0042504 
-0.0750063 0.0174893 0.00400042 
-0.0750064 0.0179268 0.00425043 
-0.0750066 0.0188018 0.00400045 
-0.0750067 0.0192393 0.00425046 
-0.0750068 0.0201143 0.00400048 
-0.0750069 0.0205518 0.00425049 
-0.0750019 -0.00569815 0.00349987 
-0.0750021 -0.00482314 0.00324988 
-0.0750022 -0.00438565 0.0034999 
-0.0750023 -0.00351064 0.00324992 
-0.0750024 -0.00307315 0.00349993 
-0.0750026 -0.00219814 0.00324995 
-0.0750027 -0.00176065 0.00349996 
-0.0750028 -0.000885636 0.00324998 
-0.0750029 -0.000448147 0.00349999 
-0.0750031 0.000426864 0.00325001 
-0.0750032 0.000864354 0.00350002 
-0.0750033 0.00173936 0.00325004 
-0.0750034 0.00217685 0.00350005 
-0.0750036 0.00305186 0.00325007 
-0.0750037 0.00348935 0.00350008 
-0.0750038 0.00436436 0.0032501 
-0.0750039 0.00480185 0.00350011 
-0.0750041 0.00567686 0.00325014 
-0.0750042 0.00611435 0.00350015 
-0.0750043 0.00698936 0.00325017 
-0.0750044 0.00742685 0.00350018 
-0.0750046 0.00830186 0.0032502 
-0.0750047 0.00873935 0.00350021 
-0.0750048 0.00961436 0.00325023 
-0.0750049 0.0100519 0.00350024 
-0.0750051 0.0109269 0.00325026 
-0.0750052 0.0113644 0.00350027 
-0.0750053 0.0122394 0.00325029 
-0.0750054 0.0126769 0.0035003 
-0.0750056 0.0135519 0.00325032 
-0.0750057 0.0139894 0.00350033 
-0.0750058 0.0148644 0.00325035 
-0.0750059 0.0153019 0.00350037 
-0.0750061 0.0161769 0.00325039 
-0.0750062 0.0166144 0.0035004 
-0.0750063 0.0174894 0.00325042 
-0.0750064 0.0179269 0.00350043 
-0.0750066 0.0188019 0.00325045 
-0.0750067 0.0192394 0.00350046 
-0.0750068 0.0201144 0.00325048 
-0.0750069 0.0205519 0.00350049 
-0.0750022 -0.00438562 0.0027499 
-0.0750023 -0.0035106 0.00249992 
-0.0750024 -0.00307312 0.00274993 
-0.0750026 -0.0021981 0.00249995 
-0.0750027 -0.00176062 0.00274996 
-0.0750028 -0.000885604 0.00249998 
-0.0750029 -0.000448116 0.00274999 
-0.0750031 0.000426896 0.00250001 
-0.0750032 0.000864385 0.00275002 
-0.0750033 0.0017394 0.00250004 
-0.0750034 0.00217689 0.00275005 
-0.0750036 0.0030519 0.00250007 
-0.0750037 0.00348939 0.00275008 
-0.0750038 0.0043644 0.0025001 
-0.0750039 0.00480189 0.00275011 
-0.0750041 0.0056769 0.00250014 
-0.0750042 0.00611439 0.00275015 
-0.0750043 0.0069894 0.00250017 
-0.0750044 0.00742689 0.00275018 
-0.0750046 0.0083019 0.0025002 
-0.0750047 0.00873939 0.00275021 
-0.0750048 0.0096144 0.00250023 
-0.0750049 0.0100519 0.00275024 
-0.0750051 0.0109269 0.00250026 
-0.0750052 0.0113644 0.00275027 
-0.0750053 0.0122394 0.00250029 
-0.0750054 0.0126769 0.0027503 
-0.0750056 0.0135519 0.00250032 
-0.0750057 0.0139894 0.00275033 
-0.0750058 0.0148644 0.00250035 
-0.0750059 0.0153019 0.00275036 
-0.0750061 0.0161769 0.00250039 
-0.0750062 0.0166144 0.0027504 
-0.0750063 0.0174894 0.00250042 
-0.0750064 0.0179269 0.00275043 
-0.0750066 0.0188019 0.00250045 
-0.0750067 0.0192394 0.00275046 
-0.0750068 0.0201144 0.00250048 
-0.0750069 0.0205519 0.00275049 
-0.0750024 -0.00307309 0.00199993 
-0.0750026 -0.00219807 0.00174995 
-0.0750027 -0.00176059 0.00199996 
-0.0750028 -0.000885573 0.00174998 
-0.0750029 -0.000448085 0.00199999 
-0.0750031 0.000426927 0.00175001 
-0.0750032 0.000864415 0.00200002 
-0.0750033 0.00173943 0.00175004 
-0.0750034 0.00217692 0.00200005 
-0.0750036 0.00305193 0.00175007 
-0.0750037 0.00348942 0.00200008 
-0.0750038 0.00436443 0.0017501 
-0.0750039 0.00480192 0.00200011 
-0.0750041 0.00567693 0.00175014 
-0.0750042 0.00611442 0.00200015 
-0.0750043 0.00698943 0.00175017 
-0.0750044 0.00742692 0.00200018 
-0.0750046 0.00830193 0.0017502 
-0.0750047 0.00873942 0.00200021 
-0.0750048 0.00961443 0.00175023 
-0.0750049 0.0100519 0.00200024 
-0.0750051 0.0109269 0.00175026 
-0.0750052 0.0113644 0.00200027 
-0.0750053 0.0122394 0.00175029 
-0.0750054 0.0126769 0.0020003 
-0.0750056 0.0135519 0.00175032 
-0.0750057 0.0139894 0.00200033 
-0.0750058 0.0148644 0.00175035 
-0.0750059 0.0153019 0.00200036 
-0.0750061 0.0161769 0.00175039 
-0.0750062 0.0166144 0.0020004 
-0.0750063 0.0174894 0.00175042 
-0.0750064 0.0179269 0.00200043 
-0.0750066 0.0188019 0.00175045 
-0.0750067 0.0192394 0.00200046 
-0.0750068 0.0201144 0.00175048 
-0.0750069 0.0205519 0.00200049 
-0.0750027 -0.00176055 0.00124996 
-0.0750028 -0.000885542 0.000999979 
-0.0750029 -0.000448054 0.00124999 
-0.0750031 0.000426958 0.00100001 
-0.0750032 0.000864447 0.00125002 
-0.0750033 0.00173946 0.00100004 
-0.0750034 0.00217695 0.00125005 
-0.0750036 0.00305196 0.00100007 
-0.0750037 0.00348945 0.00125008 
-0.0750038 0.00436446 0.0010001 
-0.0750039 0.00480195 0.00125011 
-0.0750041 0.00567696 0.00100014 
-0.0750042 0.00611445 0.00125015 
-0.0750043 0.00698946 0.00100017 
-0.0750044 0.00742695 0.00125018 
-0.0750046 0.00830196 0.0010002 
-0.0750047 0.00873945 0.00125021 
-0.0750048 0.00961446 0.00100023 
-0.0750049 0.0100519 0.00125024 
-0.0750051 0.010927 0.00100026 
-0.0750052 0.0113644 0.00125027 
-0.0750053 0.0122395 0.00100029 
-0.0750054 0.0126769 0.0012503 
-0.0750056 0.013552 0.00100032 
-0.0750057 0.0139894 0.00125033 
-0.0750058 0.0148645 0.00100035 
-0.0750059 0.0153019 0.00125037 
-0.0750061 0.016177 0.00100039 
-0.0750062 0.0166144 0.0012504 
-0.0750063 0.0174895 0.00100042 
-0.0750064 0.0179269 0.00125043 
-0.0750066 0.018802 0.00100045 
-0.0750067 0.0192394 0.00125046 
-0.0750068 0.0201145 0.00100048 
-0.0750069 0.0205519 0.00125049 
-0.0750029 -0.000448023 0.00049999 
-0.0750031 0.000426989 0.00025001 
-0.0750032 0.000864478 0.000500021 
-0.0750033 0.00173949 0.000250041 
-0.0750034 0.00217698 0.000500052 
-0.0750036 0.00305199 0.000250073 
-0.0750037 0.00348948 0.000500083 
-0.0750038 0.00436449 0.000250104 
-0.0750039 0.00480198 0.000500115 
-0.0750041 0.00567699 0.000250136 
-0.0750042 0.00611448 0.000500146 
-0.0750043 0.00698949 0.000250167 
-0.0750044 0.00742698 0.000500177 
-0.0750046 0.00830199 0.000250198 
-0.0750047 0.00873948 0.000500209 
-0.0750048 0.00961449 0.000250229 
-0.0750049 0.010052 0.00050024 
-0.0750051 0.010927 0.00025026 
-0.0750052 0.0113645 0.000500271 
-0.0750053 0.0122395 0.000250292 
-0.0750054 0.012677 0.000500303 
-0.0750056 0.013552 0.000250323 
-0.0750057 0.0139895 0.000500334 
-0.0750058 0.0148645 0.000250354 
-0.0750059 0.015302 0.000500365 
-0.0750061 0.016177 0.000250386 
-0.0750062 0.0166145 0.000500396 
-0.0750063 0.0174895 0.000250417 
-0.0750064 0.017927 0.000500428 
-0.0750066 0.018802 0.000250448 
-0.0750067 0.0192395 0.000500458 
-0.0750068 0.0201145 0.000250479 
-0.0750069 0.020552 0.00050049 
-0.0750032 0.00086451 -0.00024998 
-0.0750033 0.00173952 -0.000499958 
-0.0750034 0.00217701 -0.000249948 
-0.0750036 0.00305202 -0.000499927 
-0.0750037 0.00348951 -0.000249917 
-0.0750038 0.00436452 -0.000499895 
-0.0750039 0.00480201 -0.000249886 
-0.0750041 0.00567702 -0.000499864 
-0.0750042 0.00611451 -0.000249855 
-0.0750043 0.00698952 -0.000499833 
-0.0750044 0.00742701 -0.000249824 
-0.0750046 0.00830202 -0.000499802 
-0.0750047 0.00873951 -0.000249792 
-0.0750048 0.00961452 -0.00049977 
-0.0750049 0.010052 -0.000249761 
-0.0750051 0.010927 -0.00049974 
-0.0750052 0.0113645 -0.000249729 
-0.0750053 0.0122395 -0.000499708 
-0.0750054 0.012677 -0.000249698 
-0.0750056 0.013552 -0.000499677 
-0.0750057 0.0139895 -0.000249667 
-0.0750058 0.0148645 -0.000499645 
-0.0750059 0.015302 -0.000249636 
-0.0750061 0.016177 -0.000499614 
-0.0750062 0.0166145 -0.000249604 
-0.0750063 0.0174895 -0.000499583 
-0.0750064 0.017927 -0.000249573 
-0.0750066 0.018802 -0.000499551 
-0.0750067 0.0192395 -0.000249542 
-0.0750068 0.0201145 -0.00049952 
-0.0750069 0.020552 -0.000249511 
-0.0750034 0.00217704 -0.000999948 
-0.0750036 0.00305205 -0.00124993 
-0.0750037 0.00348954 -0.000999917 
-0.0750038 0.00436455 -0.0012499 
-0.0750039 0.00480204 -0.000999886 
-0.0750041 0.00567705 -0.00124986 
-0.0750042 0.00611454 -0.000999854 
-0.0750043 0.00698955 -0.00124983 
-0.0750044 0.00742704 -0.000999823 
-0.0750046 0.00830205 -0.0012498 
-0.0750047 0.00873954 -0.000999792 
-0.0750048 0.00961455 -0.00124977 
-0.0750049 0.010052 -0.000999761 
-0.0750051 0.010927 -0.00124974 
-0.0750052 0.0113645 -0.000999729 
-0.0750053 0.0122396 -0.00124971 
-0.0750054 0.012677 -0.000999698 
-0.0750056 0.0135521 -0.00124968 
-0.0750057 0.0139895 -0.000999667 
-0.0750058 0.0148646 -0.00124965 
-0.0750059 0.015302 -0.000999636 
-0.0750061 0.0161771 -0.00124961 
-0.0750062 0.0166145 -0.000999604 
-0.0750063 0.0174896 -0.00124958 
-0.0750064 0.017927 -0.000999573 
-0.0750066 0.0188021 -0.00124955 
-0.0750067 0.0192395 -0.000999542 
-0.0750068 0.0201146 -0.00124952 
-0.0750069 0.020552 -0.000999511 
-0.0750037 0.00348957 -0.00174992 
-0.0750038 0.00436458 -0.0019999 
-0.0750039 0.00480207 -0.00174989 
-0.0750041 0.00567708 -0.00199986 
-0.0750042 0.00611457 -0.00174985 
-0.0750043 0.00698958 -0.00199983 
-0.0750044 0.00742707 -0.00174982 
-0.0750046 0.00830208 -0.0019998 
-0.0750047 0.00873957 -0.00174979 
-0.0750048 0.00961458 -0.00199977 
-0.0750049 0.0100521 -0.00174976 
-0.0750051 0.0109271 -0.00199974 
-0.0750052 0.0113646 -0.00174973 
-0.0750053 0.0122396 -0.00199971 
-0.0750054 0.0126771 -0.0017497 
-0.0750056 0.0135521 -0.00199968 
-0.0750057 0.0139896 -0.00174967 
-0.0750058 0.0148646 -0.00199965 
-0.0750059 0.0153021 -0.00174964 
-0.0750061 0.0161771 -0.00199961 
-0.0750062 0.0166146 -0.0017496 
-0.0750063 0.0174896 -0.00199958 
-0.0750064 0.0179271 -0.00174957 
-0.0750066 0.0188021 -0.00199955 
-0.0750067 0.0192396 -0.00174954 
-0.0750068 0.0201146 -0.00199952 
-0.0750069 0.0205521 -0.00174951 
-0.0750039 0.0048021 -0.00249989 
-0.0750041 0.00567711 -0.00274986 
-0.0750042 0.0061146 -0.00249985 
-0.0750043 0.00698961 -0.00274983 
-0.0750044 0.0074271 -0.00249982 
-0.0750046 0.00830211 -0.0027498 
-0.0750047 0.0087396 -0.00249979 
-0.0750048 0.00961461 -0.00274977 
-0.0750049 0.0100521 -0.00249976 
-0.0750051 0.0109271 -0.00274974 
-0.0750052 0.0113646 -0.00249973 
-0.0750053 0.0122396 -0.00274971 
-0.0750054 0.0126771 -0.0024997 
-0.0750056 0.0135521 -0.00274968 
-0.0750057 0.0139896 -0.00249967 
-0.0750058 0.0148646 -0.00274965 
-0.0750059 0.0153021 -0.00249964 
-0.0750061 0.0161771 -0.00274961 
-0.0750062 0.0166146 -0.0024996 
-0.0750063 0.0174896 -0.00274958 
-0.0750064 0.0179271 -0.00249957 
-0.0750066 0.0188021 -0.00274955 
-0.0750067 0.0192396 -0.00249954 
-0.0750068 0.0201146 -0.00274952 
-0.0750069 0.0205521 -0.00249951 
-0.0750042 0.00611464 -0.00324985 
-0.0750043 0.00698964 -0.00349983 
-0.0750044 0.00742714 -0.00324982 
-0.0750046 0.00830214 -0.0034998 
-0.0750047 0.00873964 -0.00324979 
-0.0750048 0.00961464 -0.00349977 
-0.0750049 0.0100521 -0.00324976 
-0.0750051 0.0109271 -0.00349974 
-0.0750052 0.0113646 -0.00324973 
-0.0750053 0.0122396 -0.00349971 
-0.0750054 0.0126771 -0.0032497 
-0.0750056 0.0135521 -0.00349968 
-0.0750057 0.0139896 -0.00324967 
-0.0750058 0.0148646 -0.00349965 
-0.0750059 0.0153021 -0.00324963 
-0.0750061 0.0161771 -0.00349961 
-0.0750062 0.0166146 -0.0032496 
-0.0750063 0.0174896 -0.00349958 
-0.0750064 0.0179271 -0.00324957 
-0.0750066 0.0188021 -0.00349955 
-0.0750067 0.0192396 -0.00324954 
-0.0750068 0.0201146 -0.00349952 
-0.0750069 0.0205521 -0.00324951 
-0.0750044 0.00742717 -0.00399982 
-0.0750046 0.00830218 -0.0042498 
-0.0750047 0.00873967 -0.00399979 
-0.0750048 0.00961468 -0.00424977 
-0.0750049 0.0100522 -0.00399976 
-0.0750051 0.0109272 -0.00424974 
-0.0750052 0.0113647 -0.00399973 
-0.0750053 0.0122397 -0.00424971 
-0.0750054 0.0126772 -0.0039997 
-0.0750056 0.0135522 -0.00424968 
-0.0750057 0.0139897 -0.00399967 
-0.0750058 0.0148647 -0.00424965 
-0.0750059 0.0153022 -0.00399964 
-0.0750061 0.0161772 -0.00424961 
-0.0750062 0.0166147 -0.0039996 
-0.0750063 0.0174897 -0.00424958 
-0.0750064 0.0179272 -0.00399957 
-0.0750066 0.0188022 -0.00424955 
-0.0750067 0.0192397 -0.00399954 
-0.0750068 0.0201147 -0.00424952 
-0.0750069 0.0205522 -0.00399951 
-0.0750047 0.0087397 -0.00474979 
-0.0750048 0.00961471 -0.00499977 
-0.0750049 0.0100522 -0.00474976 
-0.0750051 0.0109272 -0.00499974 
-0.0750052 0.0113647 -0.00474973 
-0.0750053 0.0122397 -0.00499971 
-0.0750054 0.0126772 -0.0047497 
-0.0750056 0.0135522 -0.00499968 
-0.0750057 0.0139897 -0.00474967 
-0.0750058 0.0148647 -0.00499965 
-0.0750059 0.0153022 -0.00474964 
-0.0750061 0.0161772 -0.00499961 
-0.0750062 0.0166147 -0.0047496 
-0.0750063 0.0174897 -0.00499958 
-0.0750064 0.0179272 -0.00474957 
-0.0750066 0.0188022 -0.00499955 
-0.0750067 0.0192397 -0.00474954 
-0.0750068 0.0201147 -0.00499952 
-0.0750069 0.0205522 -0.00474951 
-0.0750049 0.0100522 -0.00549976 
-0.0750051 0.0109272 -0.00574974 
-0.0750052 0.0113647 -0.00549973 
-0.0750053 0.0122397 -0.00574971 
-0.0750054 0.0126772 -0.0054997 
-0.0750056 0.0135522 -0.00574968 
-0.0750057 0.0139897 -0.00549967 
-0.0750058 0.0148647 -0.00574965 
-0.0750059 0.0153022 -0.00549964 
-0.0750061 0.0161772 -0.00574961 
-0.0750062 0.0166147 -0.0054996 
-0.0750063 0.0174897 -0.00574958 
-0.0750064 0.0179272 -0.00549957 
-0.0750066 0.0188022 -0.00574955 
-0.0750067 0.0192397 -0.00549954 
-0.0750068 0.0201147 -0.00574952 
-0.0750069 0.0205522 -0.00549951 
-0.0750052 0.0113648 -0.00624973 
-0.0750053 0.0122398 -0.00649971 
-0.0750054 0.0126773 -0.0062497 
-0.0750056 0.0135523 -0.00649968 
-0.0750057 0.0139898 -0.00624967 
-0.0750058 0.0148648 -0.00649965 
-0.0750059 0.0153023 -0.00624964 
-0.0750061 0.0161773 -0.00649961 
-0.0750062 0.0166148 -0.0062496 
-0.0750063 0.0174898 -0.00649958 
-0.0750064 0.0179273 -0.00624957 
-0.0750066 0.0188023 -0.00649955 
-0.0750067 0.0192398 -0.00624954 
-0.0750068 0.0201148 -0.00649952 
-0.0750069 0.0205523 -0.00624951 
-0.0750054 0.0126773 -0.0069997 
-0.0750056 0.0135523 -0.00724968 
-0.0750057 0.0139898 -0.00699967 
-0.0750058 0.0148648 -0.00724964 
-0.0750059 0.0153023 -0.00699964 
-0.0750061 0.0161773 -0.00724961 
-0.0750062 0.0166148 -0.0069996 
-0.0750063 0.0174898 -0.00724958 
-0.0750064 0.0179273 -0.00699957 
-0.0750066 0.0188023 -0.00724955 
-0.0750067 0.0192398 -0.00699954 
-0.0750068 0.0201148 -0.00724952 
-0.0750069 0.0205523 -0.00699951 
-0.0750057 0.0139898 -0.00774967 
-0.0750058 0.0148648 -0.00799965 
-0.0750059 0.0153023 -0.00774964 
-0.0750061 0.0161773 -0.00799961 
-0.0750062 0.0166148 -0.0077496 
-0.0750063 0.0174898 -0.00799958 
-0.0750064 0.0179273 -0.00774957 
-0.0750066 0.0188023 -0.00799955 
-0.0750067 0.0192398 -0.00774954 
-0.0750068 0.0201148 -0.00799952 
-0.0750069 0.0205523 -0.00774951 
-0.0750059 0.0153024 -0.00849964 
-0.0750061 0.0161774 -0.00874961 
-0.0750062 0.0166149 -0.0084996 
-0.0750063 0.0174899 -0.00874958 
-0.0750064 0.0179274 -0.00849957 
-0.0750066 0.0188024 -0.00874955 
-0.0750067 0.0192399 -0.00849954 
-0.0750068 0.0201149 -0.00874952 
-0.0750069 0.0205524 -0.00849951 
-0.0750062 0.0166149 -0.00924961 
-0.0750063 0.0174899 -0.00949958 
-0.0750064 0.0179274 -0.00924957 
-0.0750066 0.0188024 -0.00949955 
-0.0750067 0.0192399 -0.00924954 
-0.0750068 0.0201149 -0.00949952 
-0.0750069 0.0205524 -0.00924951 
-0.0750064 0.0179274 -0.00999957 
-0.0750066 0.0188024 -0.0102496 
-0.0750067 0.0192399 -0.00999954 
-0.0750068 0.0201149 -0.0102495 
-0.0750069 0.0205524 -0.00999951 
-0.0750067 0.0192399 -0.0107495 
-0.0750068 0.020115 -0.0109995 
-0.0750069 0.0205524 -0.0107495 
-0.0750069 0.0205525 -0.0114995 
-0.0334506 -0.0210021 -0.0114844 
-0.0339022 -0.0210022 -0.0109682 
-0.0334506 -0.0210021 -0.0107102 
-0.0339022 -0.0210022 -0.010194 
-0.0334506 -0.0210022 -0.00993598 
-0.0339022 -0.0210023 -0.00941985 
-0.0334506 -0.0210022 -0.00916179 
-0.0339022 -0.0210023 -0.00864566 
-0.0334506 -0.0210022 -0.0083876 
-0.0339022 -0.0210023 -0.00787147 
-0.0334506 -0.0210023 -0.0076134 
-0.0339022 -0.0210024 -0.00709727 
-0.0334506 -0.0210023 -0.00683921 
-0.0339022 -0.0210024 -0.00632308 
-0.0334506 -0.0210023 -0.00606502 
-0.0339022 -0.0210024 -0.00554889 
-0.0334506 -0.0210024 -0.00529082 
-0.0339022 -0.0210025 -0.00477469 
-0.0334506 -0.0210024 -0.00451663 
-0.0339022 -0.0210025 -0.0040005 
-0.0334506 -0.0210024 -0.00374244 
-0.0339022 -0.0210025 -0.00322631 
-0.0334506 -0.0210025 -0.00296824 
-0.0339022 -0.0210026 -0.00245211 
-0.0334506 -0.0210025 -0.00219405 
-0.0339022 -0.0210026 -0.00167792 
-0.0334506 -0.0210025 -0.00141986 
-0.0339022 -0.0210026 -0.000903726 
-0.0334506 -0.0210026 -0.000645661 
-0.0339022 -0.0210027 -0.000129533 
-0.0334506 -0.0210026 0.000128532 
-0.0339022 -0.0210027 0.000644661 
-0.0334506 -0.0210026 0.000902725 
-0.0339022 -0.0210027 0.00141885 
-0.0334506 -0.0210027 0.00167692 
-0.0339022 -0.0210028 0.00219305 
-0.0334506 -0.0210027 0.00245111 
-0.0339022 -0.0210028 0.00296724 
-0.0334506 -0.0210027 0.00322531 
-0.0339022 -0.0210028 0.00374143 
-0.0334506 -0.0210028 0.0039995 
-0.0339022 -0.0210029 0.00451563 
-0.0334506 -0.0210028 0.00477369 
-0.0339022 -0.0210029 0.00528982 
-0.0334506 -0.0210028 0.00554789 
-0.0339022 -0.0210029 0.00606402 
-0.0334506 -0.0210028 0.00632208 
-0.0339022 -0.021003 0.00683821 
-0.0334506 -0.0210029 0.00709627 
-0.0339022 -0.021003 0.0076124 
-0.0334506 -0.0210029 0.00787047 
-0.0339022 -0.021003 0.0083866 
-0.0334506 -0.0210029 0.00864466 
-0.0339022 -0.0210031 0.00916079 
-0.0334506 -0.021003 0.00941885 
-0.0339022 -0.0210031 0.00993498 
-0.0334506 -0.021003 0.010193 
-0.0339022 -0.0210031 0.0107092 
-0.0334506 -0.021003 0.0109672 
-0.0339022 -0.0210032 0.0114834 
-0.0334506 -0.0210031 0.0117414 
-0.0348055 -0.0210024 -0.0107102 
-0.0352571 -0.0210025 -0.010194 
-0.0348055 -0.0210024 -0.00993598 
-0.0352571 -0.0210025 -0.00941985 
-0.0348055 -0.0210025 -0.00916179 
-0.0352571 -0.0210026 -0.00864566 
-0.0348055 -0.0210025 -0.0083876 
-0.0352571 -0.0210026 -0.00787147 
-0.0348055 -0.0210025 -0.0076134 
-0.0352571 -0.0210026 -0.00709727 
-0.0348055 -0.0210026 -0.00683921 
-0.0352571 -0.0210027 -0.00632308 
-0.0348055 -0.0210026 -0.00606502 
-0.0352571 -0.0210027 -0.00554889 
-0.0348055 -0.0210026 -0.00529082 
-0.0352571 -0.0210027 -0.00477469 
-0.0348055 -0.0210027 -0.00451663 
-0.0352571 -0.0210028 -0.0040005 
-0.0348055 -0.0210027 -0.00374244 
-0.0352571 -0.0210028 -0.00322631 
-0.0348055 -0.0210027 -0.00296824 
-0.0352571 -0.0210028 -0.00245211 
-0.0348055 -0.0210028 -0.00219405 
-0.0352571 -0.0210029 -0.00167792 
-0.0348055 -0.0210028 -0.00141985 
-0.0352571 -0.0210029 -0.000903726 
-0.0348055 -0.0210028 -0.000645662 
-0.0352571 -0.0210029 -0.000129533 
-0.0348055 -0.0210028 0.000128532 
-0.0352571 -0.021003 0.000644661 
-0.0348055 -0.0210029 0.000902725 
-0.0352571 -0.021003 0.00141885 
-0.0348055 -0.0210029 0.00167692 
-0.0352571 -0.021003 0.00219305 
-0.0348055 -0.0210029 0.00245111 
-0.0352571 -0.0210031 0.00296724 
-0.0348055 -0.021003 0.00322531 
-0.0352571 -0.0210031 0.00374144 
-0.0348055 -0.021003 0.0039995 
-0.0352571 -0.0210031 0.00451563 
-0.0348055 -0.021003 0.00477369 
-0.0352571 -0.0210032 0.00528982 
-0.0348055 -0.0210031 0.00554789 
-0.0352571 -0.0210032 0.00606402 
-0.0348055 -0.0210031 0.00632208 
-0.0352571 -0.0210032 0.00683821 
-0.0348055 -0.0210031 0.00709627 
-0.0352571 -0.0210032 0.0076124 
-0.0348055 -0.0210032 0.00787047 
-0.0352571 -0.0210033 0.0083866 
-0.0348055 -0.0210032 0.00864466 
-0.0352571 -0.0210033 0.00916079 
-0.0348055 -0.0210032 0.00941885 
-0.0352571 -0.0210033 0.00993498 
-0.0348055 -0.0210033 0.010193 
-0.0352571 -0.0210034 0.0107092 
-0.0348055 -0.0210033 0.0109672 
-0.0352571 -0.0210034 0.0114834 
-0.0348055 -0.0210033 0.0117414 
-0.0361603 -0.0210027 -0.00993598 
-0.0366119 -0.0210028 -0.00941985 
-0.0361603 -0.0210027 -0.00916179 
-0.0366119 -0.0210028 -0.00864566 
-0.0361603 -0.0210028 -0.0083876 
-0.0366119 -0.0210029 -0.00787147 
-0.0361603 -0.0210028 -0.0076134 
-0.0366119 -0.0210029 -0.00709727 
-0.0361603 -0.0210028 -0.00683921 
-0.0366119 -0.0210029 -0.00632308 
-0.0361603 -0.0210028 -0.00606502 
-0.0366119 -0.021003 -0.00554889 
-0.0361603 -0.0210029 -0.00529082 
-0.0366119 -0.021003 -0.00477469 
-0.0361603 -0.0210029 -0.00451663 
-0.0366119 -0.021003 -0.0040005 
-0.0361603 -0.0210029 -0.00374244 
-0.0366119 -0.0210031 -0.00322631 
-0.0361603 -0.021003 -0.00296824 
-0.0366119 -0.0210031 -0.00245211 
-0.0361603 -0.021003 -0.00219405 
-0.0366119 -0.0210031 -0.00167792 
-0.0361603 -0.021003 -0.00141986 
-0.0366119 -0.0210031 -0.000903726 
-0.0361603 -0.0210031 -0.000645661 
-0.0366119 -0.0210032 -0.000129533 
-0.0361603 -0.0210031 0.000128532 
-0.0366119 -0.0210032 0.000644661 
-0.0361603 -0.0210031 0.000902725 
-0.0366119 -0.0210033 0.00141885 
-0.0361603 -0.0210032 0.00167692 
-0.0366119 -0.0210033 0.00219305 
-0.0361603 -0.0210032 0.00245111 
-0.0366119 -0.0210033 0.00296724 
-0.0361603 -0.0210032 0.00322531 
-0.0366119 -0.0210033 0.00374143 
-0.0361603 -0.0210033 0.0039995 
-0.0366119 -0.0210034 0.00451563 
-0.0361603 -0.0210033 0.00477369 
-0.0366119 -0.0210034 0.00528982 
-0.0361603 -0.0210033 0.00554789 
-0.0366119 -0.0210034 0.00606401 
-0.0361603 -0.0210034 0.00632208 
-0.0366119 -0.0210035 0.00683821 
-0.0361603 -0.0210034 0.00709627 
-0.0366119 -0.0210035 0.0076124 
-0.0361603 -0.0210034 0.00787047 
-0.0366119 -0.0210035 0.0083866 
-0.0361603 -0.0210035 0.00864466 
-0.0366119 -0.0210036 0.00916079 
-0.0361603 -0.0210035 0.00941885 
-0.0366119 -0.0210036 0.00993498 
-0.0361603 -0.0210035 0.010193 
-0.0366119 -0.0210036 0.0107092 
-0.0361603 -0.0210036 0.0109672 
-0.0366119 -0.0210037 0.0114834 
-0.0361603 -0.0210036 0.0117414 
-0.0375151 -0.021003 -0.00916179 
-0.0379667 -0.0210031 -0.00864566 
-0.0375151 -0.021003 -0.0083876 
-0.0379667 -0.0210031 -0.00787147 
-0.0375151 -0.021003 -0.0076134 
-0.0379667 -0.0210031 -0.00709727 
-0.0375151 -0.0210031 -0.00683921 
-0.0379667 -0.0210032 -0.00632308 
-0.0375151 -0.0210031 -0.00606502 
-0.0379667 -0.0210032 -0.00554889 
-0.0375151 -0.0210031 -0.00529082 
-0.0379667 -0.0210032 -0.00477469 
-0.0375151 -0.0210032 -0.00451663 
-0.0379667 -0.0210033 -0.0040005 
-0.0375151 -0.0210032 -0.00374244 
-0.0379667 -0.0210033 -0.00322631 
-0.0375151 -0.0210032 -0.00296824 
-0.0379667 -0.0210033 -0.00245211 
-0.0375151 -0.0210033 -0.00219405 
-0.0379667 -0.0210034 -0.00167792 
-0.0375151 -0.0210033 -0.00141985 
-0.0379667 -0.0210034 -0.000903726 
-0.0375151 -0.0210033 -0.000645662 
-0.0379667 -0.0210034 -0.000129533 
-0.0375151 -0.0210034 0.000128532 
-0.0379667 -0.0210035 0.000644661 
-0.0375151 -0.0210034 0.000902725 
-0.0379667 -0.0210035 0.00141885 
-0.0375151 -0.0210034 0.00167692 
-0.0379667 -0.0210035 0.00219305 
-0.0375151 -0.0210035 0.00245111 
-0.0379667 -0.0210036 0.00296724 
-0.0375151 -0.0210035 0.00322531 
-0.0379667 -0.0210036 0.00374143 
-0.0375151 -0.0210035 0.0039995 
-0.0379667 -0.0210036 0.00451563 
-0.0375151 -0.0210036 0.00477369 
-0.0379667 -0.0210037 0.00528982 
-0.0375151 -0.0210036 0.00554789 
-0.0379667 -0.0210037 0.00606402 
-0.0375151 -0.0210036 0.00632208 
-0.0379667 -0.0210037 0.00683821 
