# .PCD v0.7 - Point Cloud Data file format
VERSION 0.7
FIELDS x y z rgba
SIZE 4 4 4 4
TYPE F F F U
COUNT 1 1 1 1
WIDTH 1178
HEIGHT 1
VIEWPOINT 0 0 0 1 0 0 0
POINTS 1178
DATA ascii
-0.048356846 -0.0067951116 -0.0032855978 0
-0.048416544 -0.0067294291 -0.0047699339 0
-0.048506316 -0.0066688885 -0.0062452727 0
-0.048481252 -0.0050768727 -0.0076465872 0
-0.048679795 -0.0050363401 -0.0091204913 0
-0.049077466 -0.0042552636 -0.010563389 0
-0.049458832 -0.0042331088 -0.012079329 0
-0.049894363 -0.0042368616 -0.013634806 0
-0.05015013 -0.0049493476 -0.01515402 0
-0.050399397 -0.0049255397 -0.016692033 0
-0.050476093 -0.0063521857 -0.018096557 0
-0.050507534 -0.0077444036 -0.019467305 0
-0.050516739 -0.0091210371 -0.02080068 0
-0.050473426 -0.0097883632 -0.022149518 0
-0.050313845 -0.0097360006 -0.023528947 0
-0.050031532 -0.0096719805 -0.024826137 0
-0.049702864 -0.0095686819 -0.026025437 0
-0.049269781 -0.010850401 -0.02692434 0
-0.048765402 -0.012062849 -0.02783554 0
-0.048240066 -0.011828485 -0.028482191 0
-0.047602214 -0.011650687 -0.029139956 0
-0.044872228 -0.0096501429 0.030252434 0
-0.046113852 -0.01167875 0.028898563 0
-0.047185682 -0.011203852 0.028165817 0
-0.047859065 -0.011291692 0.02733642 0
-0.048365921 -0.010038613 0.027157361 0
-0.049072251 -0.011455243 0.025392184 0
-0.049534973 -0.010126341 0.024854451 0
-0.050056867 -0.010135816 0.023546183 0
-0.050457086 -0.01012671 0.022138121 0
-0.050663657 -0.0086611575 0.021162048 0
-0.050867636 -0.0086004883 0.01959643 0
-0.050941601 -0.008538736 0.017988807 0
-0.050879907 -0.0084574083 0.016367154 0
-0.050797883 -0.0098452726 0.014521641 0
-0.050690055 -0.0097680315 0.012988483 0
-0.050555594 -0.0096904477 0.011466727 0
-0.05042351 -0.0096274288 0.0099609978 0
-0.050208196 -0.0095642507 0.008466322 0
-0.049955741 -0.0095142238 0.0069872183 0
-0.049733061 -0.0094691869 0.0055110278 0
-0.049502328 -0.0094316136 0.0040398384 0
-0.048890125 -0.0077930992 0.0026050718 0
-0.048805173 -0.0077587385 0.0011324371 0
-0.049034309 -0.0093140053 -0.00037782313 0
-0.048949592 -0.0092631401 -0.0018590718 0
-0.049154706 -0.010732635 -0.0033531773 0
-0.048911411 -0.0091466438 -0.0048159845 0
-0.04896868 -0.009088642 -0.0062918682 0
-0.049035426 -0.0090327943 -0.007767092 0
-0.04915693 -0.0089832535 -0.0092424611 0
-0.04936631 -0.007489528 -0.010687768 0
-0.049702261 -0.0074737812 -0.01219187 0
-0.05000985 -0.0074515305 -0.013714674 0
-0.050164975 -0.0088626649 -0.015158103 0
-0.050251395 -0.010240192 -0.016565338 0
-0.050355781 -0.01090756 -0.01799342 0
-0.050507803 -0.010871975 -0.01942878 0
-0.050570715 -0.01082265 -0.020877009 0
-0.05050173 -0.01076255 -0.022291327 0
-0.050233554 -0.012065769 -0.023465894 0
-0.049969796 -0.01195003 -0.024736304 0
-0.049587447 -0.01183981 -0.025936026 0
-0.049153749 -0.013029814 -0.026794733 0
-0.048638936 -0.01341664 -0.027499489 0
-0.048230521 -0.0132143 -0.028122105 0
-0.044231676 -0.010453248 0.03049396 0
-0.047445595 -0.012882415 0.027187726 0
-0.048141401 -0.012993228 0.026313743 0
-0.049047183 -0.014423262 0.024750154 0
-0.0494335 -0.01254224 0.024606071 0
-0.049856067 -0.012556326 0.023273308 0
-0.050311543 -0.015917011 0.020701164 0
-0.050569318 -0.015931658 0.019397918 0
-0.050899353 -0.015947629 0.018065291 0
-0.050968997 -0.012464546 0.017476393 0
-0.051118314 -0.012420415 0.015982246 0
-0.051077958 -0.0123455 0.014435328 0
-0.051044345 -0.012995549 0.012812765 0
-0.050849721 -0.010721363 0.011543142 0
-0.050841633 -0.012136494 0.0098812273 0
-0.050644353 -0.012061668 0.0083784238 0
-0.050447751 -0.011992811 0.0068861237 0
-0.0502102 -0.011930858 0.0054042204 0
-0.05003592 -0.011876638 0.0039303391 0
-0.049603079 -0.010272506 0.0024885109 0
-0.04966525 -0.011777147 0.00098977238 0
-0.049522664 -0.011728933 -0.00047780632 0
-0.049435463 -0.011679231 -0.001945038 0
-0.049388189 -0.011626313 -0.0034161105 0
-0.049379781 -0.011573276 -0.0048893276 0
-0.0494004 -0.011520464 -0.0063624997 0
-0.049428634 -0.011471381 -0.0078323763 0
-0.049502116 -0.011425503 -0.0093039656 0
-0.049644329 -0.0113876 -0.010776456 0
-0.04979397 -0.0099468408 -0.012276186 0
-0.050003845 -0.011328453 -0.013730315 0
-0.050224159 -0.011999548 -0.015179236 0
-0.050269373 -0.013316123 -0.016558796 0
-0.050230131 -0.014620892 -0.017920563 0
-0.050368603 -0.01457854 -0.019325428 0
-0.050450735 -0.013190577 -0.020874027 0
-0.050356813 -0.014428672 -0.02207 0
-0.050120268 -0.014341947 -0.02340159 0
-0.04989928 -0.012897741 -0.024914317 0
-0.049411181 -0.012771641 -0.026070254 0
-0.048831064 -0.013872761 -0.026820866 0
-0.048495568 -0.014198556 -0.027460869 0
-0.048069309 -0.013964423 -0.028086584 0
-0.047823403 -0.015211969 0.025802976 0
-0.048698466 -0.016621826 0.024263674 0
-0.049277216 -0.015526771 0.023933107 0
-0.049898811 -0.01750084 0.021897232 0
-0.050353177 -0.016943056 0.020943198 0
-0.050623763 -0.016959066 0.019606225 0
-0.050816689 -0.018878246 0.017685218 0
-0.05101471 -0.018880086 0.016330406 0
-0.051239084 -0.016932946 0.015394293 0
-0.051263332 -0.016889391 0.013939347 0
-0.051405273 -0.016863748 0.012494368 0
-0.051345434 -0.015444713 0.011234703 0
-0.051302131 -0.016752854 0.0095636733 0
-0.051073786 -0.015290793 0.0082317581 0
-0.050962128 -0.015225611 0.006748578 0
-0.050769787 -0.015154813 0.0052688336 0
-0.050614394 -0.015090755 0.0037963968 0
-0.050234158 -0.013560227 0.0023717096 0
-0.050051887 -0.013499779 0.00089706562 0
-0.049910959 -0.013442573 -0.00057787675 0
-0.049813367 -0.013393924 -0.0020465564 0
-0.049779776 -0.013348907 -0.0035146093 0
-0.049734328 -0.013304242 -0.0049801455 0
-0.049749319 -0.013264623 -0.0064485562 0
-0.049695585 -0.012519992 -0.0079197437 0
-0.049809672 -0.013185865 -0.0093909018 0
-0.049908116 -0.013154497 -0.010867579 0
-0.050042894 -0.013130901 -0.01234168 0
-0.050153825 -0.014437377 -0.013764711 0
-0.050205752 -0.016368421 -0.015092104 0
-0.050222758 -0.016307045 -0.016524836 0
-0.050376311 -0.016270613 -0.01795686 0
-0.050421018 -0.016196329 -0.019369086 0
-0.050394688 -0.016131377 -0.020752812 0
-0.050178304 -0.016034551 -0.022082224 0
-0.050028533 -0.015294231 -0.023510596 0
-0.049597055 -0.015126079 -0.024727348 0
-0.049219247 -0.014956044 -0.02582383 0
-0.048761465 -0.015282743 -0.026663419 0
-0.04819468 -0.01503217 -0.027524458 0
-0.047397874 -0.013000156 -0.028611097 0
-0.047016833 -0.012691131 -0.029009296 0
-0.048032571 -0.019100798 0.024337705 0
-0.048521757 -0.019346641 0.023557492 0
-0.049424514 -0.02073645 0.022175986 0
-0.049716432 -0.020865619 0.021092365 0
-0.050179526 -0.020965252 0.019949915 0
-0.050565727 -0.021035602 0.018736385 0
-0.050867558 -0.021098362 0.017451968 0
-0.051098064 -0.02114824 0.016125359 0
-0.051293619 -0.021168407 0.014762118 0
-0.051598363 -0.022413028 0.013145957 0
-0.051742636 -0.021206642 0.012009156 0
-0.051655337 -0.017971519 0.011151309 0
-0.051594306 -0.017902358 0.0096467715 0
-0.051409543 -0.016457232 0.0082952818 0
-0.051409338 -0.017752344 0.0066709532 0
-0.051065534 -0.016261635 0.0052696946 0
-0.050905921 -0.016180327 0.0037631679 0
-0.050560128 -0.014664493 0.0023164509 0
-0.050408289 -0.014596504 0.00080624287 0
-0.050253537 -0.014537029 -0.00068184681 0
-0.050156318 -0.014486243 -0.0021700196 0
-0.050106376 -0.0144485 -0.0036427709 0
-0.050040528 -0.014409328 -0.0051147519 0
-0.050048977 -0.014389777 -0.006582371 0
-0.05006453 -0.014369788 -0.0080571091 0
-0.050177716 -0.015690977 -0.00948832 0
-0.050207615 -0.015652377 -0.010956467 0
-0.050595786 -0.021966424 -0.012042289 0
-0.050484724 -0.021839285 -0.013459827 0
-0.050369903 -0.021692464 -0.014798855 0
-0.050245993 -0.018589128 -0.016519181 0
-0.050299995 -0.018502986 -0.01792901 0
-0.050267197 -0.018417085 -0.019290876 0
-0.050306093 -0.017162438 -0.02090032 0
-0.050028689 -0.017033724 -0.022238154 0
-0.049724236 -0.01687032 -0.023501674 0
-0.049238905 -0.016683193 -0.02470807 0
-0.048862271 -0.016456379 -0.025759248 0
-0.048534241 -0.016162755 -0.026767178 0
-0.048072174 -0.015859315 -0.027503604 0
-0.047571767 -0.015515139 -0.027971692 0
-0.047974914 -0.020999599 0.023863859 0
-0.048076227 -0.020212514 0.02365176 0
-0.049302194 -0.021708021 0.022377893 0
-0.049694672 -0.02187909 0.02129253 0
-0.050012372 -0.021991031 0.020128189 0
-0.050492197 -0.022113798 0.018906659 0
-0.050749958 -0.023250254 0.017188864 0
-0.051069219 -0.023344543 0.01588393 0
-0.051345266 -0.023383459 0.014556141 0
-0.051916078 -0.026173927 0.012513544 0
-0.051938742 -0.019319691 0.011334945 0
-0.051894825 -0.019220548 0.0097713992 0
-0.051747952 -0.017793752 0.0084251799 0
-0.051749486 -0.01903538 0.0067258393 0
-0.051582642 -0.018915774 0.0051900903 0
-0.051436484 -0.018824462 0.0036708477 0
-0.050946321 -0.015940947 0.0022687502 0
-0.05075432 -0.015838614 0.00073136319 0
-0.050612681 -0.015776677 -0.00081466703 0
-0.050767999 -0.017167751 -0.0023288946 0
-0.050591294 -0.017093068 -0.0037986527 0
-0.050544329 -0.017064098 -0.0052686557 0
-0.050537728 -0.017036179 -0.0067462521 0
-0.050647311 -0.020123361 -0.0080276188 0
-0.050782613 -0.021281799 -0.009395455 0
-0.050757349 -0.022365995 -0.010720663 0
-0.050638013 -0.022859942 -0.01208361 0
-0.050627656 -0.02373649 -0.013294166 0
-0.050371807 -0.022504013 -0.01480954 0
-0.050141778 -0.022321139 -0.016146749 0
-0.050105218 -0.02065517 -0.017868845 0
-0.049980942 -0.020529497 -0.019197445 0
-0.049897358 -0.019302776 -0.020772973 0
-0.049580313 -0.019128235 -0.022050563 0
-0.049361836 -0.017916238 -0.023732118 0
-0.048929017 -0.017697359 -0.024927368 0
-0.048577808 -0.017437823 -0.026006738 0
-0.048092682 -0.017115841 -0.026924096 0
-0.047488801 -0.016711986 -0.027577218 0
-0.04680026 -0.015719388 -0.028323023 0
-0.046259865 -0.01523405 -0.028404525 0
-0.047505122 -0.02180469 0.023953201 0
-0.047909666 -0.02213151 0.023175798 0
-0.048683241 -0.022502223 0.022362404 0
-0.049324445 -0.022856822 0.021432962 0
-0.049881175 -0.023993954 0.019745082 0
-0.050221376 -0.024181454 0.018580964 0
-0.050611727 -0.024780273 0.017087299 0
-0.050918408 -0.0248893 0.015794666 0
-0.051214084 -0.025945175 0.014111836 0
-0.051533304 -0.026050035 0.01281618 0
-0.051902965 -0.027043251 0.011223806 0
-0.051942781 -0.026135936 0.010124804 0
-0.051854085 -0.02507107 0.0089729587 0
-0.05196033 -0.023443868 0.0078671528 0
-0.051973507 -0.023398522 0.0064004008 0
-0.05192833 -0.021011127 0.0051779766 0
-0.051795542 -0.020896256 0.0036150147 0
-0.051517878 -0.018832685 0.0021644088 0
-0.051386736 -0.018755233 0.00058769004 0
-0.05137527 -0.019998595 -0.00096754363 0
-0.051261988 -0.019921385 -0.002479028 0
-0.05141072 -0.02553823 -0.0035877998 0
-0.051701557 -0.027871914 -0.0047261626 0
-0.051567886 -0.027766012 -0.0060476204 0
-0.051060017 -0.024198057 -0.0079211118 0
-0.050840788 -0.024080556 -0.0093393251 0
-0.050705314 -0.023957359 -0.010738816 0
-0.050579932 -0.023792835 -0.012141331 0
-0.050391648 -0.024589103 -0.013324747 0
-0.050174449 -0.024326406 -0.014603102 0
-0.04987039 -0.023216672 -0.016186774 0
-0.049685776 -0.023020927 -0.017520567 0
-0.049402371 -0.022342384 -0.018982142 0
-0.049619839 -0.020434344 -0.020993603 0
-0.049250815 -0.020195242 -0.022259299 0
-0.048854426 -0.018992005 -0.023980543 0
-0.048423387 -0.018721167 -0.025151175 0
-0.047878537 -0.01832059 -0.026062028 0
-0.047370136 -0.017906984 -0.026915714 0
-0.047144953 -0.018350767 -0.026992973 0
-0.046217307 -0.016881488 -0.027689839 0
-0.045750715 -0.016341042 -0.027741738 0
-0.047133371 -0.022212021 0.024151998 0
-0.047928415 -0.023353111 0.022400094 0
-0.048596032 -0.023730468 0.021457957 0
-0.049330439 -0.024957199 0.019829262 0
-0.049872994 -0.025596038 0.018397782 0
-0.050271586 -0.025803471 0.017196998 0
-0.050638907 -0.026781164 0.015438002 0
-0.050818447 -0.026894996 0.014167055 0
-0.051257785 -0.02775776 0.012519263 0
-0.051597532 -0.02788699 0.011216889 0
-0.05161709 -0.027174454 0.01019243 0
-0.051751271 -0.02716347 0.0087975729 0
-0.051702 -0.027105395 0.0074096951 0
-0.051640853 -0.027831515 0.0058905194 0
-0.051603589 -0.027837958 0.0045450483 0
-0.05165235 -0.026040029 0.0033046461 0
-0.051865827 -0.02179588 0.0020514727 0
-0.05173564 -0.021716079 0.00044330501 0
-0.051597774 -0.025854152 -0.00097765424 0
-0.051413894 -0.026657943 -0.0023111873 0
-0.051246069 -0.026548073 -0.0037133791 0
-0.051308472 -0.027331356 -0.0049906746 0
-0.051216424 -0.027577251 -0.0062652607 0
-0.050989602 -0.026183881 -0.0078730676 0
-0.05079522 -0.026020335 -0.009270913 0
-0.050584704 -0.025872231 -0.010664024 0
-0.050325006 -0.025654824 -0.011995263 0
-0.050105639 -0.025378987 -0.013309594 0
-0.049824286 -0.025137827 -0.014621433 0
-0.049541898 -0.02406083 -0.016206454 0
-0.049208816 -0.023843713 -0.017530371 0
-0.049023554 -0.023228161 -0.018980017 0
-0.04891615 -0.022255292 -0.020635646 0
-0.048625324 -0.021197494 -0.022387732 0
-0.048145793 -0.020087644 -0.024241256 0
-0.047391471 -0.019199125 -0.025615277 0
-0.046728484 -0.018672369 -0.0263809 0
-0.04642031 -0.018617988 -0.026689855 0
-0.04633908 -0.01891337 -0.026689202 0
-0.045899782 -0.018314835 -0.026923822 0
-0.045086809 -0.021475159 0.026449677 0
-0.045925073 -0.022331527 0.025149897 0
-0.046867914 -0.023527147 0.023301914 0
-0.04766161 -0.024619505 0.021464631 0
-0.048690721 -0.025907772 0.019910714 0
-0.049211033 -0.026527431 0.018429909 0
-0.049660645 -0.027291609 0.016607676 0
-0.050030891 -0.027579546 0.01541929 0
-0.050250024 -0.028263044 0.013669539 0
-0.050521869 -0.028435702 0.012479508 0
-0.050872002 -0.028709937 0.011210192 0
-0.050956916 -0.028746666 0.0098660029 0
-0.051001869 -0.02872275 0.0085430434 0
-0.05104984 -0.028763482 0.0071897786 0
-0.051118303 -0.028716536 0.0058458988 0
-0.051111367 -0.028737204 0.004506012 0
-0.051099416 -0.028696325 0.0031259903 0
-0.051025614 -0.028594555 0.0017700316 0
-0.050981417 -0.028555522 0.00042013798 0
-0.051108275 -0.027837316 -0.0010101276 0
-0.050918836 -0.028434414 -0.0022931104 0
-0.050916325 -0.028375844 -0.0036907131 0
-0.050780945 -0.02818984 -0.0050382148 0
-0.050587021 -0.028306806 -0.0062692394 0
-0.050528411 -0.027186317 -0.0079729222 0
-0.050294533 -0.027543046 -0.0090616876 0
-0.050088666 -0.02677362 -0.010719326 0
-0.049850937 -0.026492175 -0.012004126 0
-0.049532931 -0.026220016 -0.013338248 0
-0.049247693 -0.02589868 -0.01463422 0
-0.049001385 -0.02559898 -0.015880657 0
-0.04878239 -0.025126785 -0.016990229 0
-0.048380058 -0.024334723 -0.018693844 0
-0.048116982 -0.023675757 -0.020077396 0
-0.047628969 -0.022102011 -0.022441691 0
-0.047035351 -0.021018237 -0.024325773 0
-0.046164878 -0.020017657 -0.025571959 0
-0.045547619 -0.019413799 -0.026233127 0
-0.045305893 -0.019290306 -0.026483852 0
-0.044811264 -0.018632662 -0.026928773 0
-0.042675048 -0.020886065 0.027956208 0
-0.043328032 -0.021456314 0.027361669 0
-0.044154789 -0.022072783 0.026733093 0
-0.045440741 -0.023712687 0.02425375 0
-0.046750493 -0.025531393 0.021499991 0
-0.047684431 -0.026635751 0.019793242 0
-0.048230957 -0.02729453 0.01834479 0
-0.048706226 -0.027990498 0.016525559 0
-0.049043171 -0.028294403 0.015331009 0
-0.049377322 -0.028864194 0.013594414 0
-0.049635708 -0.029088307 0.012358829 0
-0.049905706 -0.0293262 0.011139372 0
-0.05011753 -0.029503349 0.0098191714 0
-0.050191928 -0.02954172 0.0084983595 0
-0.050275229 -0.029574845 0.007166611 0
-0.05032973 -0.029545996 0.0058230185 0
-0.050293893 -0.029685663 0.0043979185 0
-0.050411396 -0.029531445 0.0030819024 0
-0.050351959 -0.029460547 0.00170551 0
-0.050327949 -0.029432461 0.00036400379 0
-0.050253868 -0.029338673 -0.0009894009 0
-0.050172742 -0.029379953 -0.0022916486 0
-0.050203767 -0.029171381 -0.0037317802 0
-0.050047997 -0.029006198 -0.005076482 0
-0.049892757 -0.028806876 -0.0064248391 0
-0.049762607 -0.028071634 -0.0080426568 0
-0.04956637 -0.027824713 -0.0093977461 0
-0.049302299 -0.027531799 -0.010728181 0
-0.049077932 -0.027285637 -0.012042639 0
-0.04879484 -0.02697489 -0.013339887 0
-0.048505101 -0.026600502 -0.014583367 0
-0.048272047 -0.026300816 -0.015843598 0
-0.047891248 -0.025419656 -0.017482031 0
-0.047600511 -0.025006987 -0.018646929 0
-0.047206592 -0.024333248 -0.019960526 0
-0.046564426 -0.022986095 -0.022490364 0
-0.045741633 -0.021799883 -0.024263546 0
-0.045157585 -0.021156115 -0.025034605 0
-0.044299528 -0.020080345 -0.026029175 0
-0.044162121 -0.019790215 -0.026181031 0
-0.043743171 -0.019130293 -0.026656028 0
-0.040657029 -0.020727683 0.028710347 0
-0.040914614 -0.020869263 0.028692065 0
-0.042177789 -0.0220933 0.027658846 0
-0.043984156 -0.024260439 0.024698049 0
-0.045236994 -0.025757926 0.022286227 0
-0.046114348 -0.026759882 0.020375434 0
-0.046986774 -0.027781719 0.018582964 0
-0.047511589 -0.028338747 0.017074862 0
-0.04800361 -0.029023467 0.015267135 0
-0.048379578 -0.029352246 0.013431435 0
-0.048625544 -0.029661613 0.012290212 0
-0.04886838 -0.029840084 0.011030629 0
-0.049078953 -0.029981554 0.0097403051 0
-0.049177878 -0.03007278 0.0084368242 0
-0.049266543 -0.030168651 0.0071221865 0
-0.049323689 -0.030198814 0.0057690921 0
-0.049405307 -0.030207517 0.0044042785 0
-0.049357474 -0.030256459 0.0029792709 0
-0.049378086 -0.030108934 0.0016613287 0
-0.049350102 -0.030045241 0.00032266681 0
-0.049315199 -0.02998193 -0.0010188791 0
-0.049399741 -0.030023327 -0.0023963733 0
-0.049257655 -0.029808683 -0.0037395027 0
-0.049153905 -0.029683866 -0.0050793579 0
-0.049010396 -0.029524136 -0.0064259153 0
-0.048857529 -0.028943377 -0.0080808382 0
-0.04861284 -0.028609727 -0.0094083464 0
-0.048430324 -0.028382869 -0.010749194 0
-0.04812035 -0.02799665 -0.012048777 0
-0.047839899 -0.027603621 -0.013302099 0
-0.047635853 -0.027232261 -0.01452451 0
-0.047400378 -0.026888624 -0.01573687 0
-0.046955895 -0.026083866 -0.017382225 0
-0.046664167 -0.025608033 -0.01849564 0
-0.04599686 -0.024613354 -0.020579318 0
-0.045301571 -0.02364867 -0.022363745 0
-0.044381823 -0.022457069 -0.024081722 0
-0.043555051 -0.021397926 -0.025217485 0
-0.043028429 -0.02060288 -0.025703318 0
-0.042611342 -0.019920111 -0.026270919 0
-0.042238619 -0.019244729 -0.026676822 0
-0.041084036 -0.017693195 -0.027485341 0
-0.037469991 -0.019387443 0.030323727 0
-0.038911581 -0.021006497 0.028912431 0
-0.039485976 -0.021677922 0.028378163 0
-0.040533766 -0.022815246 0.027246885 0
-0.042582612 -0.025039196 0.024471885 0
-0.043856375 -0.026363762 0.02201038 0
-0.044819091 -0.027385583 0.020166783 0
-0.045691673 -0.028304059 0.018350994 0
-0.046340883 -0.029023491 0.016935173 0
-0.0468003 -0.029374953 0.015025997 0
-0.047177739 -0.029892353 0.013916356 0
-0.047516469 -0.030118508 0.012181958 0
-0.047783215 -0.03041474 0.010969828 0
-0.047973659 -0.030568149 0.0096427137 0
-0.048099436 -0.030705217 0.008335649 0
-0.048154071 -0.030761505 0.0070101558 0
-0.048250474 -0.030872136 0.0057076863 0
-0.048315499 -0.030905299 0.004344177 0
-0.048369415 -0.030899741 0.0029668286 0
-0.048363946 -0.030891072 0.001625843 0
-0.048310552 -0.030759605 0.00027471487 0
-0.048329428 -0.030717267 -0.0010680347 0
-0.048344504 -0.03068891 -0.0024101967 0
-0.048267677 -0.030595575 -0.0037873921 0
-0.048179682 -0.030464187 -0.0051200246 0
-0.04801023 -0.030182099 -0.0064364495 0
-0.047806531 -0.029689997 -0.0080833128 0
-0.047589242 -0.029381633 -0.0094189439 0
-0.047301367 -0.02881474 -0.011151687 0
-0.046954989 -0.028364813 -0.012423663 0
-0.0468207 -0.028207552 -0.01321259 0
-0.04655344 -0.027752869 -0.01440791 0
-0.046173308 -0.027156169 -0.016137032 0
-0.045857891 -0.026624717 -0.017232103 0
-0.045414269 -0.025974231 -0.018651238 0
-0.044734146 -0.025106722 -0.020364502 0
-0.043971766 -0.024173504 -0.022125391 0
-0.042973917 -0.022941308 -0.023748392 0
-0.041416548 -0.021125183 -0.025674585 0
-0.040960155 -0.020362547 -0.026211992 0
-0.040567916 -0.019635689 -0.026719522 0
-0.040237851 -0.018917559 -0.027007623 0
-0.041400988 -0.019503005 -0.026329122 0
-0.031589795 -0.014976317 0.033532742 0
-0.033077918 -0.016774138 0.032582 0
-0.035136174 -0.01910813 0.030947132 0
-0.036585614 -0.020749852 0.029497085 0
-0.037989661 -0.022281712 0.027870115 0
-0.038937803 -0.023404609 0.026719093 0
-0.040983021 -0.025401043 0.023902941 0
-0.042523131 -0.026953781 0.02174191 0
-0.043004788 -0.027579021 0.020795466 0
-0.04394611 -0.028491907 0.018891718 0
-0.044816945 -0.029311612 0.017029971 0
-0.045379933 -0.029899562 0.015559687 0
-0.045764595 -0.030381266 0.014388902 0
-0.046236698 -0.03068913 0.012543248 0
-0.046498764 -0.03098746 0.011282494 0
-0.046815395 -0.031106129 0.0095555522 0
-0.046964347 -0.031304039 0.0082493778 0
-0.047057185 -0.031398803 0.0069313385 0
-0.047094598 -0.031419054 0.0056240112 0
-0.047144614 -0.031450003 0.0042940876 0
-0.047182336 -0.031422127 0.0029072468 0
-0.047189847 -0.031444438 0.0015947946 0
-0.047170091 -0.031362381 0.00019195507 0
-0.0472457 -0.0313721 -0.0011080671 0
-0.047212005 -0.031314433 -0.0024440356 0
-0.047105253 -0.031099804 -0.0040099258 0
-0.046950847 -0.03082763 -0.005365965 0
-0.046908669 -0.030757431 -0.0063929139 0
-0.046605591 -0.030285057 -0.0080495356 0
-0.046427611 -0.030008243 -0.0093722139 0
-0.046032067 -0.029461306 -0.011104204 0
-0.045785204 -0.029079298 -0.012407086 0
-0.045520723 -0.028653396 -0.013667728 0
-0.045257635 -0.028159129 -0.014846032 0
-0.044837683 -0.027604083 -0.01633703 0
-0.044181321 -0.026829531 -0.018104635 0
-0.043803159 -0.02617567 -0.019154623 0
-0.042989388 -0.025248669 -0.020917187 0
-0.042003267 -0.024111895 -0.022599541 0
-0.041244287 -0.023063784 -0.023792872 0
-0.040027663 -0.021586671 -0.02523835 0
-0.038717959 -0.019951859 -0.026535135 0
-0.038383372 -0.01920959 -0.026982365 0
-0.030384557 -0.015796332 0.033292554 0
-0.031824559 -0.017585197 0.03229247 0
-0.032693956 -0.018813597 0.031532962 0
-0.035245463 -0.021421254 0.029082555 0
-0.035591058 -0.02207303 0.028450646 0
-0.037458126 -0.023917686 0.02620789 0
-0.039614677 -0.025920453 0.023526121 0
-0.040448442 -0.026916126 0.022256158 0
-0.041573893 -0.028018676 0.020440524 0
-0.042571887 -0.028916389 0.018596949 0
-0.043492466 -0.029701823 0.016772006 0
-0.043879788 -0.030302174 0.015690083 0
-0.044375699 -0.030727429 0.014150637 0
-0.04468463 -0.031163361 0.012926653 0
-0.045214918 -0.031417716 0.011129617 0
-0.045410238 -0.031670418 0.0098221209 0
-0.045739416 -0.031503271 0.0080949645 0
-0.045803513 -0.031593669 0.0068092151 0
-0.045866106 -0.03163879 0.0055175754 0
-0.045909695 -0.03171305 0.0042198873 0
-0.045955576 -0.0317863 0.0028824694 0
-0.045898277 -0.032015342 0.0015589776 0
-0.045930058 -0.031971857 0.00015576114 0
-0.04591877 -0.031895243 -0.0012411948 0
-0.045858406 -0.031756569 -0.0026010429 0
-0.045789439 -0.03161345 -0.003982652 0
-0.04559407 -0.031467877 -0.0056853909 0
-0.045431752 -0.031189825 -0.0070717651 0
-0.045105435 -0.030785166 -0.0086223418 0
-0.044895619 -0.03043725 -0.0099806665 0
-0.044670019 -0.030063495 -0.011312882 0
-0.04434897 -0.02953599 -0.012556241 0
-0.044121366 -0.029119778 -0.013823772 0
-0.043823101 -0.028554395 -0.014982168 0
-0.043114211 -0.027800372 -0.016746363 0
-0.042801619 -0.027184365 -0.01784295 0
-0.042499166 -0.026537092 -0.01885527 0
-0.041609969 -0.025576456 -0.020569434 0
-0.040560775 -0.02434865 -0.022127541 0
-0.039012425 -0.022765454 -0.024140747 0
-0.037726317 -0.021191001 -0.025545878 0
-0.03588685 -0.01908996 -0.027262721 0
-0.035628606 -0.01836448 -0.027693393 0
-0.027916882 -0.01533841 0.033687487 0
-0.029325845 -0.017169563 0.032734443 0
-0.030775817 -0.018950878 0.031500012 0
-0.03281074 -0.021167895 0.029652553 0
-0.033111613 -0.021883003 0.029058654 0
-0.035578676 -0.024127513 0.026265649 0
-0.036433514 -0.025168708 0.024968587 0
-0.039021354 -0.027215008 0.021768153 0
-0.039402615 -0.027956765 0.020877615 0
-0.040547714 -0.029016534 0.019059712 0
-0.041549973 -0.029807389 0.017181486 0
-0.041915368 -0.030450337 0.016083013 0
-0.042763654 -0.030998232 0.014202571 0
-0.043053221 -0.031466708 0.012980609 0
-0.043286771 -0.031807158 0.011666366 0
-0.043528844 -0.032145523 0.010315236 0
-0.043916449 -0.032352824 0.0087236604 0
-0.044025563 -0.032455347 0.0073103132 0
-0.044113621 -0.032518577 0.0058814632 0
-0.044449911 -0.032376323 0.0042885924 0
-0.044487149 -0.032359906 0.0029076084 0
-0.044390935 -0.032700084 0.0015392222 0
-0.044575229 -0.032386515 0.00014041361 0
-0.044553254 -0.032265116 -0.0012436828 0
-0.044564709 -0.032256182 -0.0026103919 0
-0.04419893 -0.032091305 -0.0042127916 0
-0.044076178 -0.031826358 -0.0056014345 0
-0.04381045 -0.031578727 -0.0071738651 0
-0.043686092 -0.031313334 -0.008561546 0
-0.043195266 -0.030954944 -0.010391643 0
-0.042906873 -0.030455494 -0.011718061 0
-0.042586882 -0.029897191 -0.012983065 0
-0.042300943 -0.029353179 -0.014216408 0
-0.042012025 -0.0287591 -0.015381194 0
-0.041730389 -0.02814943 -0.016514216 0
-0.040844928 -0.027273592 -0.018277766 0
-0.04056586 -0.026617503 -0.019305686 0
-0.039499972 -0.025390692 -0.020890057 0
-0.038849212 -0.024524216 -0.022208877 0
-0.037671857 -0.023145007 -0.023700461 0
-0.035926964 -0.02131144 -0.025593992 0
-0.033545874 -0.018818678 -0.027812205 0
-0.03330889 -0.018035131 -0.028181054 0
-0.033110991 -0.017358115 -0.02854209 0
-0.030869525 -0.018320831 0.032107592 0
-0.030915456 -0.018838169 0.031714886 0
-0.026725484 -0.016080493 0.033290729 0
-0.028094497 -0.01789359 0.032306224 0
-0.028203234 -0.018560208 0.03193213 0
-0.030291688 -0.020858234 0.030131685 0
-0.031719264 -0.022492951 0.028558716 0
-0.033142548 -0.023997547 0.026834745 0
-0.034496132 -0.025333596 0.024979034 0
-0.036320668 -0.02691599 0.022691529 0
-0.037522521 -0.027987612 0.020808788 0
-0.038294841 -0.028911758 0.019414699 0
-0.039421398 -0.029834397 0.017557319 0
-0.039727487 -0.030461948 0.016425535 0
-0.04076843 -0.031220902 0.014567864 0
-0.041042373 -0.031725287 0.013307963 0
-0.041253921 -0.032077175 0.01195237 0
-0.042051051 -0.032398172 0.010121822 0
-0.042228613 -0.032668337 0.0087498538 0
-0.042585529 -0.032749653 0.0071750535 0
-0.042694133 -0.032888684 0.0057828915 0
-0.04275392 -0.032921135 0.0043639783 0
-0.042824686 -0.032961812 0.0029365101 0
-0.042859104 -0.032944746 0.001505094 0
-0.042878684 -0.03289555 7.3235249e-05 0
-0.042880632 -0.032821979 -0.0013562865 0
-0.042642154 -0.032708745 -0.0028705071 0
-0.042622156 -0.032583192 -0.0043159691 0
-0.042522743 -0.03233606 -0.0057233609 0
-0.042006288 -0.032113004 -0.0075257616 0
-0.041825429 -0.031729504 -0.0088999011 0
-0.041626524 -0.031311039 -0.010260325 0
-0.041373674 -0.030787677 -0.011554189 0
-0.041123576 -0.030236265 -0.012802737 0
-0.040240195 -0.029472884 -0.014601714 0
-0.039970189 -0.028849533 -0.015773546 0
-0.039685309 -0.028144315 -0.016860658 0
-0.039431274 -0.027456388 -0.017911099 0
-0.038378496 -0.02632772 -0.019532571 0
-0.036848743 -0.025069617 -0.02171878 0
-0.035629533 -0.023728814 -0.023402629 0
-0.035406802 -0.022982718 -0.024194106 0
-0.033616871 -0.021145092 -0.026163748 0
-0.032286908 -0.019471964 -0.027509263 0
-0.0309391 -0.017712923 -0.028679749 0
-0.030783594 -0.016938075 -0.028884847 0
-0.030197669 -0.015901826 -0.029864486 0
-0.03015344 -0.015256866 -0.030147238 0
-0.032289613 -0.019350905 0.03143923 0
-0.031134503 -0.019236024 0.031517439 0
-0.029961975 -0.018814841 0.031783018 0
-0.029985128 -0.019351158 0.031358063 0
-0.025565874 -0.016745901 0.032806993 0
-0.02554993 -0.017338809 0.032459058 0
-0.025548635 -0.017984914 0.032089844 0
-0.027009862 -0.019938242 0.030951547 0
-0.029142966 -0.022207597 0.029033797 0
-0.030572794 -0.023765806 0.027337437 0
-0.031997453 -0.02518207 0.02547917 0
-0.034950491 -0.027220778 0.022195645 0
-0.036189269 -0.028326992 0.020414494 0
-0.036414452 -0.028949486 0.019355733 0
-0.037148822 -0.029795896 0.017902115 0
-0.038312234 -0.030705735 0.016078372 0
-0.038542453 -0.031238576 0.014863553 0
-0.039577305 -0.031863704 0.013018713 0
-0.039788175 -0.032301713 0.011719742 0
-0.039960641 -0.032621466 0.010355924 0
-0.040780313 -0.032830503 0.0085682068 0
-0.040894322 -0.03302075 0.0071891746 0
-0.040978316 -0.033107549 0.0057755373 0
-0.041063789 -0.033213817 0.0043553216 0
-0.041392323 -0.033177573 0.0028802776 0
-0.041105535 -0.033122391 0.0014854952 0
-0.041123804 -0.033074275 4.7922586e-05 0
-0.041127998 -0.032994233 -0.0013859506 0
-0.041125387 -0.032901511 -0.0028139306 0
-0.040597212 -0.03288985 -0.0045155091 0
-0.040572278 -0.032730341 -0.0059878365 0
-0.040448394 -0.032407768 -0.0073946132 0
-0.040289655 -0.03201161 -0.0087621119 0
-0.040097278 -0.031531774 -0.010077306 0
-0.039895918 -0.031013735 -0.011345006 0
-0.038979821 -0.030285804 -0.01311902 0
-0.038728394 -0.029608272 -0.014285857 0
-0.038526125 -0.02900755 -0.015447754 0
-0.037490983 -0.028079731 -0.017199527 0
-0.037265681 -0.02733399 -0.018203706 0
-0.036633566 -0.026512973 -0.019607877 0
-0.034002151 -0.024674565 -0.02261148 0
-0.0327585 -0.023329593 -0.024405085 0
-0.032529045 -0.022477746 -0.02512704 0
-0.031224646 -0.020937968 -0.026705652 0
-0.029848333 -0.019097792 -0.027891347 0
-0.02972208 -0.01825759 -0.028236676 0
-0.027830327 -0.016109593 -0.029864803 0
-0.026517104 -0.01433986 -0.030819111 0
-0.025190668 -0.01261619 -0.031728301 0
-0.025163699 -0.012105651 -0.031918943 0
-0.025095563 -0.011636294 -0.032115698 0
-0.029227322 -0.017905027 0.032479893 0
-0.031478543 -0.019608468 0.031152466 0
-0.030236876 -0.019573063 0.031204218 0
-0.030190112 -0.02005895 0.030782357 0
-0.030199876 -0.02056456 0.030326186 0
-0.024426069 -0.017385984 0.032347415 0
-0.024381341 -0.017985919 0.031954803 0
-0.024349408 -0.018626593 0.031495262 0
-0.025714295 -0.020464355 0.030230517 0
-0.027158044 -0.022233443 0.028844386 0
-0.027936384 -0.023427308 0.027693845 0
-0.029378831 -0.024906261 0.025888314 0
-0.030811971 -0.026303126 0.023964044 0
-0.033832479 -0.028144408 0.020736996 0
-0.034037184 -0.028848642 0.019700825 0
-0.035272218 -0.029814726 0.01784195 0
-0.035960704 -0.030526534 0.016317999 0
-0.036219429 -0.031289667 0.015167085 0
-0.037324429 -0.031874955 0.013262215 0
-0.037546873 -0.032446727 0.011972577 0
-0.037750538 -0.032920092 0.010620842 0
-0.038700059 -0.033153709 0.0087757492 0
-0.038813796 -0.033357687 0.0073599215 0
-0.039639637 -0.033440769 0.0056777922 0
-0.039678641 -0.033431511 0.0042644581 0
-0.039686106 -0.033377279 0.0028551186 0
-0.039063904 -0.033536013 0.001478933 0
-0.039041623 -0.033380881 -2.5960617e-08 0
-0.03905762 -0.033306707 -0.0014686773 0
-0.039047435 -0.033175115 -0.0029348035 0
-0.039063737 -0.033098683 -0.0044084489 0
-0.038998138 -0.032842815 -0.0058350498 0
-0.038258407 -0.032635599 -0.0076576211 0
-0.038059637 -0.032105707 -0.0090122661 0
-0.037867006 -0.031543765 -0.01032564 0
-0.037683368 -0.030964581 -0.011593068 0
-0.037497841 -0.030339627 -0.012795783 0
-0.036524374 -0.029715933 -0.014671539 0
-0.036310606 -0.028980847 -0.015780302 0
-0.036129534 -0.028260104 -0.016825804 0
-0.03550775 -0.027481806 -0.018265737 0
-0.034369763 -0.026447054 -0.020024579 0
-0.031571284 -0.024581347 -0.023107203 0
-0.031386998 -0.023743328 -0.023938471 0
-0.028825238 -0.02135187 -0.026295519 0
-0.028075458 -0.01999699 -0.027292844 0
-0.027987491 -0.019168034 -0.027830901 0
-0.027957642 -0.018462909 -0.028429987 0
-0.026645206 -0.016733227 -0.029519336 0
-0.02402539 -0.013932252 -0.031236667 0
-0.023991304 -0.013364169 -0.031505324 0
-0.02395656 -0.012825236 -0.031761244 0
-0.029382803 -0.019739129 0.030941753 0
-0.029246179 -0.020876674 0.029911945 0
-0.02186016 -0.017475555 0.032167975 0
-0.023185901 -0.019220734 0.030935267 0
-0.023150047 -0.019892678 0.030396422 0
-0.025893163 -0.022576321 0.028067151 0
-0.026613813 -0.023754487 0.026923403 0
-0.028030718 -0.02519856 0.025146969 0
-0.029430527 -0.026516616 0.023285685 0
-0.030803598 -0.027724642 0.021430973 0
-0.031539079 -0.028642863 0.019965205 0
-0.032829903 -0.029597051 0.01807525 0
-0.03409797 -0.030542035 0.016261844 0
-0.034807265 -0.031340461 0.014785854 0
-0.034994278 -0.031973347 0.013555655 0
-0.03616038 -0.032620665 0.011724373 0
-0.036323387 -0.033082329 0.010390466 0
-0.037354536 -0.03339513 0.0085972948 0
-0.037444334 -0.03359139 0.0072084097 0
-0.038319506 -0.033569545 0.0055589955 0
-0.038352352 -0.03359637 0.0041823904 0
-0.038368806 -0.033556566 0.0028021545 0
-0.03760225 -0.033630531 0.00144353 0
-0.037595339 -0.033497594 -2.3609027e-06 0
-0.037614074 -0.033440035 -0.0014498191 0
-0.037600435 -0.033281762 -0.0028815947 0
-0.036812227 -0.033300783 -0.0045650648 0
-0.036786508 -0.033080127 -0.0060415347 0
-0.036707338 -0.032727834 -0.0074723735 0
-0.036605991 -0.032313194 -0.0088443113 0
-0.036456984 -0.031758737 -0.010128686 0
-0.036329977 -0.031232378 -0.011389247 0
-0.035286762 -0.030530423 -0.013184925 0
-0.035124097 -0.029846581 -0.014342709 0
-0.034985051 -0.029154405 -0.015446979 0
-0.034372974 -0.028410627 -0.016887376 0
-0.034264177 -0.02774162 -0.017935971 0
-0.032016113 -0.026353439 -0.020429302 0
-0.030209612 -0.024964424 -0.022670167 0
-0.028865397 -0.02344932 -0.02427645 0
-0.027539894 -0.021868123 -0.025849357 0
-0.025545547 -0.01966995 -0.02770273 0
-0.025501216 -0.018854665 -0.028275162 0
-0.025475634 -0.018067604 -0.02875611 0
-0.024146967 -0.016366642 -0.02992307 0
-0.022824654 -0.014630222 -0.030943699 0
-0.022777375 -0.014061308 -0.031257037 0
-0.020699088 -0.018128701 0.031715121 0
-0.020664375 -0.018784361 0.031234801 0
-0.02200341 -0.020468047 0.029820357 0
-0.023342457 -0.02206091 0.028241631 0
-0.024723202 -0.023615206 0.026606845 0
-0.025414405 -0.024695074 0.025310103 0
-0.026820328 -0.026055882 0.023456084 0
-0.029517166 -0.027798569 0.020864256 0
-0.029586358 -0.028472347 0.019769639 0
-0.031540152 -0.029700952 0.017647341 0
-0.031649508 -0.030391464 0.016498495 0
-0.032943163 -0.031310357 0.014716477 0
-0.033082355 -0.031978704 0.013503253 0
-0.033785883 -0.032658555 0.011963946 0
-0.033924658 -0.033142515 0.010613037 0
-0.035075914 -0.033537846 0.0087804049 0
-0.036123857 -0.033709306 0.0070430273 0
-0.03617641 -0.033814333 0.0056589711 0
-0.036213402 -0.033843666 0.0042457487 0
-0.037126094 -0.033663925 0.0027387962 0
-0.03626021 -0.033801969 0.0014012023 0
-0.036260609 -0.033703808 -1.4267251e-05 0
-0.035395198 -0.033768605 -0.0015397812 0
-0.035378098 -0.033583838 -0.0029962808 0
-0.035328649 -0.033267986 -0.0044383421 0
-0.035295624 -0.033005625 -0.0058630183 0
-0.035260417 -0.03273733 -0.0072685042 0
-0.035195187 -0.032340128 -0.0086056814 0
-0.035115611 -0.031890012 -0.009899063 0
-0.035034031 -0.031378247 -0.011147799 0
-0.033948649 -0.030720731 -0.012915453 0
-0.033331286 -0.030013436 -0.014395037 0
-0.033237062 -0.029378084 -0.015536579 0
-0.032066856 -0.028477998 -0.017315222 0
-0.031983469 -0.027758554 -0.018359959 0
-0.030765964 -0.026688332 -0.020101426 0
-0.028891891 -0.025204983 -0.022152878 0
-0.02759864 -0.023871494 -0.023847701 0
-0.025635606 -0.021969868 -0.025818452 0
-0.024322692 -0.020260213 -0.027289776 0
-0.024297988 -0.019435082 -0.027891126 0
-0.022978248 -0.017698197 -0.029138898 0
-0.022954673 -0.016971927 -0.029567199 0
-0.021621525 -0.015299888 -0.030654466 0
-0.019510472 -0.01929806 0.030604683 0
-0.020855902 -0.020963691 0.029228866 0
-0.022212749 -0.02251865 0.027672 0
-0.023574796 -0.023947012 0.025987629 0
-0.02425704 -0.024970848 0.024671076 0
-0.025638191 -0.026218006 0.022838207 0
-0.02565542 -0.026920378 0.021800783 0
-0.028367421 -0.028522728 0.019273002 0
-0.030346086 -0.029820086 0.017255668 0
-0.030406304 -0.030519936 0.016128663 0
-0.03171315 -0.031484421 0.014393075 0
-0.031806611 -0.032166645 0.01320981 0
-0.032493416 -0.032829475 0.01169132 0
-0.032580536 -0.033250354 0.010355373 0
-0.033777334 -0.033579133 0.0085542649 0
-0.033842966 -0.033845562 0.0071808267 0
-0.034930225 -0.033879351 0.0055312091 0
-0.034956906 -0.03396773 0.0041524759 0
-0.034987591 -0.033987127 0.0027664828 0
-0.034009833 -0.034091093 0.0014045964 0
-0.034022808 -0.033991467 -5.4507407e-05 0
-0.034031507 -0.033875741 -0.0015078583 0
-0.03402885 -0.033706475 -0.0029477382 0
-0.034010742 -0.033460464 -0.0043668691 0
-0.033984158 -0.033144224 -0.0057508354 0
-0.032920945 -0.032915749 -0.0074926792 0
-0.032875419 -0.032491524 -0.0088706855 0
-0.032828413 -0.0320604 -0.010205673 0
-0.032767177 -0.0315075 -0.011461975 0
-0.032161739 -0.030931119 -0.012987353 0
-0.030969111 -0.030147959 -0.014797013 0
-0.030903047 -0.029482041 -0.015943646 0
-0.030851172 -0.028796244 -0.017035231 0
-0.029605793 -0.02768952 -0.018732434 0
-0.028957155 -0.026772374 -0.02011127 0
-0.026400434 -0.02505159 -0.022545528 0
-0.025090229 -0.023614807 -0.024192996 0
-0.024430798 -0.022441294 -0.025413219 0
-0.023114068 -0.02078232 -0.026878197 0
-0.021799201 -0.019068478 -0.02824261 0
-0.02177654 -0.018296169 -0.028777082 0
-0.020448957 -0.016612662 -0.029958433 0
-0.02041862 -0.015981473 -0.030346027 0
-0.019070197 -0.01432766 -0.031402491 0
-0.018361673 -0.019805849 0.030017732 0
-0.019706467 -0.021412004 0.028628051 0
-0.021063793 -0.022924406 0.027098017 0
-0.022430982 -0.024276366 0.025415251 0
-0.02311003 -0.02523819 0.024092548 0
-0.02311652 -0.02593614 0.023150133 0
-0.024490172 -0.027084205 0.021261908 0
-0.027205816 -0.028622884 0.018841209 0
-0.027896009 -0.029519247 0.017439535 0
-0.029230984 -0.030610185 0.015748773 0
-0.030552981 -0.031690005 0.014091662 0
-0.030599112 -0.032335635 0.012912287 0
-0.030658662 -0.032879855 0.011656734 0
-0.031334359 -0.03339437 0.010111275 0
-0.031392299 -0.033732083 0.0087439418 0
-0.032617956 -0.033983935 0.0070171165 0
-0.032660887 -0.034143351 0.0056298873 0
-0.033809114 -0.034105763 0.0040659951 0
-0.033818349 -0.034102682 0.00269019 0
-0.032734178 -0.034200083 0.0013629084 0
-0.03275606 -0.034132756 -6.7551184e-05 0
-0.031662062 -0.034176096 -0.0015868612 0
-0.032773178 -0.033856239 -0.0028980928 0
-0.031666581 -0.033755824 -0.0045277984 0
-0.031653393 -0.033443872 -0.0059537711 0
-0.031066623 -0.033123426 -0.0075351768 0
-0.031037135 -0.032689583 -0.0089157037 0
-0.031012123 -0.032257415 -0.010259267 0
-0.03098342 -0.031761169 -0.01154298 0
-0.029750979 -0.030982198 -0.013305741 0
-0.029722603 -0.03033684 -0.014493195 0
-0.029705917 -0.029665323 -0.01562169 0
-0.028430818 -0.028587691 -0.017309131 0
-0.028418206 -0.027909657 -0.01838471 0
-0.026491405 -0.026585713 -0.020429565 0
-0.025191428 -0.025347633 -0.022124432 0
-0.023883807 -0.02397556 -0.023766773 0
-0.02191947 -0.022083707 -0.025723636 0
-0.020616168 -0.020442251 -0.027231058 0
-0.019305836 -0.018728215 -0.028642803 0
-0.019272124 -0.017963199 -0.02917747 0
-0.017937424 -0.016219277 -0.030316237 0
-0.017899217 -0.015596536 -0.030713582 0
-0.017203888 -0.014486659 -0.031440541 0
-0.015856765 -0.019182572 0.030024376 0
-0.017183747 -0.020852514 0.028723985 0
-0.018537616 -0.022420947 0.027248446 0
-0.019903891 -0.023856083 0.025628086 0
-0.021274269 -0.025182383 0.0239329 0
-0.021960396 -0.026125761 0.022568684 0
-0.023331262 -0.027299192 0.020807654 0
-0.024698487 -0.028404059 0.019072076 0
-0.026749078 -0.02970984 0.017075894 0
-0.028100133 -0.030782104 0.015408179 0
-0.028115671 -0.03149607 0.014276765 0
-0.028139019 -0.032167282 0.013096198 0
-0.029476406 -0.033038687 0.011387045 0
-0.029513765 -0.033482306 0.010088715 0
-0.030186635 -0.033868551 0.008538573 0
-0.030223837 -0.034120042 0.0071523497 0
-0.031481951 -0.034277651 0.0055058245 0
-0.032723527 -0.034334742 0.0040001622 0
-0.032744512 -0.03433463 0.0026484793 0
-0.031560682 -0.034367349 0.0013260907 0
-0.031581443 -0.034296766 -7.6186559e-05 0
-0.030391069 -0.034257643 -0.0015624091 0
-0.030402889 -0.034071978 -0.0030085896 0
-0.030412018 -0.033865102 -0.0044407388 0
-0.030415606 -0.033599306 -0.005847129 0
-0.029808836 -0.033271663 -0.0073884032 0
-0.028550696 -0.032763679 -0.0091379909 0
-0.029804461 -0.032367785 -0.01004227 0
-0.029807316 -0.031856239 -0.011289196 0
-0.028539395 -0.031083455 -0.01300604 0
-0.028541623 -0.030434914 -0.014165961 0
-0.027248947 -0.029440539 -0.015858494 0
-0.026602317 -0.028549381 -0.017251663 0
-0.02529927 -0.027485229 -0.018978696 0
-0.02399485 -0.026353437 -0.020716652 0
-0.022035643 -0.024827052 -0.022805149 0
-0.020725563 -0.023357427 -0.024467558 0
-0.01942246 -0.021774476 -0.026083028 0
-0.018106779 -0.020092696 -0.027572254 0
-0.018087167 -0.01928344 -0.028212197 0
-0.016759524 -0.01755783 -0.029496927 0
-0.016721234 -0.016851021 -0.029968526 0
-0.016017644 -0.015692936 -0.030700754 0
-0.014699827 -0.014087275 -0.031764191 0
-0.014750471 -0.019615648 0.029384464 0
-0.016060444 -0.021194251 0.028059088 0
-0.017404381 -0.022738678 0.026613666 0
-0.017370744 -0.023401167 0.025811689 0
-0.018742668 -0.024856344 0.024200113 0
-0.020117555 -0.026138708 0.022473909 0
-0.020810137 -0.027029483 0.021051409 0
-0.023534184 -0.028562123 0.0186713 0
-0.024905261 -0.029708827 0.017008461 0
-0.025597971 -0.030612055 0.015610295 0
-0.02696931 -0.031662185 0.013943133 0
-0.026985094 -0.032310341 0.012785229 0
-0.027003469 -0.032873251 0.011548696 0
-0.028360356 -0.033505764 0.0098292762 0
-0.028379541 -0.03384098 0.0084977923 0
-0.028407825 -0.034129474 0.007120843 0
-0.029087238 -0.034350425 0.0055979216 0
-0.030388864 -0.034490772 0.0040361071 0
-0.030415351 -0.034514878 0.0026603374 0
-0.029156037 -0.034529086 0.0013226189 0
-0.029178806 -0.034486655 -0.0001099037 0
-0.029199183 -0.034355674 -0.0015430509 0
-0.028575161 -0.034184601 -0.0030298023 0
-0.028593566 -0.033947106 -0.0044587059 0
-0.027301883 -0.033616327 -0.0061224429 0
-0.02731736 -0.033231847 -0.0075454158 0
-0.027331546 -0.032781754 -0.0089168586 0
-0.027345804 -0.03228477 -0.010237658 0
-0.027358525 -0.031730995 -0.01149739 0
-0.026053863 -0.030911909 -0.01321997 0
-0.026065318 -0.030259244 -0.014397409 0
-0.026076917 -0.029575298 -0.015521837 0
-0.025423056 -0.028721718 -0.016912382 0
-0.024114829 -0.027687483 -0.018621011 0
-0.021486321 -0.02615758 -0.021032846 0
-0.020834588 -0.025090231 -0.022349253 0
-0.018228544 -0.023062531 -0.024799353 0
-0.016924404 -0.021475088 -0.02645334 0
-0.016906895 -0.020635838 -0.027180243 0
-0.015583894 -0.018909398 -0.028546333 0
-0.014894558 -0.017674763 -0.029480904 0
-0.014852691 -0.016973181 -0.029958537 0
-0.014817741 -0.016341506 -0.030397901 0
-0.013538383 -0.020685636 0.028165413 0
-0.014873927 -0.022248037 0.026754942 0
-0.016225673 -0.023755135 0.025257923 0
-0.016203159 -0.024436768 0.024402767 0
-0.018956346 -0.0263272 0.021960549 0
-0.019646512 -0.0272134 0.020591266 0
-0.021019524 -0.028308289 0.018877195 0
-0.022385806 -0.029512901 0.017221224 0
-0.0237561 -0.030615065 0.015541895 0
-0.024452236 -0.031514138 0.014156792 0
-0.024474176 -0.032135163 0.012968701 0
-0.025846118 -0.032935318 0.011253793 0
-0.024513578 -0.033178493 0.010385155 0
-0.025887158 -0.033745829 0.0086232126 0
-0.025910158 -0.034053415 0.0072287135 0
-0.02727296 -0.034351137 0.0055663707 0
-0.027295651 -0.034479383 0.004162963 0
-0.027973281 -0.034547593 0.0026865096 0
-0.027338276 -0.034573209 0.0013037822 0
-0.027359167 -0.034514405 -0.00013102856 0
-0.027382515 -0.034391951 -0.0015597289 0
-0.027401691 -0.034189075 -0.0029677586 0
-0.026100589 -0.033943459 -0.0045597712 0
-0.026120109 -0.033617221 -0.0059831846 0
-0.024814306 -0.03317162 -0.0077008056 0
-0.024831071 -0.032706786 -0.0090959305 0
-0.024846697 -0.032181159 -0.010428318 0
-0.024862511 -0.031629667 -0.011712232 0
-0.024877198 -0.031025592 -0.012931483 0
-0.024894103 -0.030382728 -0.014092559 0
-0.024243092 -0.02959542 -0.015498705 0
-0.022925382 -0.028606055 -0.017209157 0
-0.021612762 -0.027550329 -0.01892628 0
-0.019638553 -0.026169078 -0.020977706 0
-0.018330699 -0.024896579 -0.022694867 0
-0.017024523 -0.023473609 -0.02436886 0
-0.015720807 -0.02193452 -0.026012124 0
-0.014401407 -0.020297533 -0.027528016 0
-0.014364306 -0.019499382 -0.028181586 0
-0.013672511 -0.018289384 -0.029130965 0
-0.013628528 -0.017572286 -0.029634431 0
-0.013586561 -0.016923148 -0.030101519 0
-0.011701921 -0.020685922 0.027979635 0
-0.012334228 -0.021784531 0.026917761 0
-0.013690505 -0.023290552 0.02541814 0
-0.01365198 -0.024018176 0.024615347 0
-0.015040999 -0.025433755 0.022920923 0
-0.016429761 -0.02672131 0.021176178 0
-0.017811218 -0.027900087 0.019427847 0
-0.01783042 -0.028677417 0.018342596 0
-0.019883871 -0.030058285 0.016327361 0
-0.02125684 -0.031176152 0.014628591 0
-0.022632156 -0.032116394 0.01289942 0
-0.02130216 -0.032438427 0.012141098 0
-0.022674659 -0.033140067 0.01032674 0
-0.023374388 -0.033642035 0.0087536192 0
-0.023396565 -0.033980735 0.0073443446 0
-0.02342209 -0.034253694 0.0058907871 0
-0.024793869 -0.034476798 0.0042157024 0
-0.026153229 -0.03455773 0.0026569203 0
-0.024840795 -0.034580875 0.0013080944 0
-0.024863906 -0.034536533 -0.00015323568 0
-0.024885938 -0.034407694 -0.0016078863 0
-0.02490635 -0.034227919 -0.003049002 0
-0.024927201 -0.033975728 -0.0044699991 0
-0.023616552 -0.033600029 -0.0061148829 0
-0.02363498 -0.033214081 -0.0075246459 0
-0.022985943 -0.032692842 -0.009077183 0
-0.023005622 -0.03219885 -0.010416421 0
-0.023689801 -0.031749446 -0.011462199 0
-0.023036614 -0.03103248 -0.012907648 0
-0.021720942 -0.03011179 -0.014610111 0
-0.020403689 -0.029148471 -0.016358238 0
-0.019086383 -0.02811789 -0.018125219 0
-0.018436948 -0.027176505 -0.019547457 0
-0.017129717 -0.025979493 -0.021294257 0
-0.015830567 -0.024675582 -0.02302972 0
-0.014524096 -0.023242727 -0.02477031 0
-0.013215645 -0.021677475 -0.026413741 0
-0.013182771 -0.020859808 -0.027156474 0
-0.012499205 -0.01964568 -0.028209867 0
-0.011165747 -0.017989265 -0.029559823 0
-0.012426126 -0.018178079 -0.029305002 0
-0.012390047 -0.017528076 -0.029785588 0
-0.010579607 -0.021087224 0.027410544 0
-0.010495721 -0.021739857 0.026717035 0
-0.011139587 -0.022879509 0.025624575 0
-0.011096206 -0.023603074 0.024819011 0
-0.013887881 -0.02571347 0.022422444 0
-0.013888341 -0.026488833 0.021451641 0
-0.015276689 -0.027739722 0.019703478 0
-0.015299039 -0.028502904 0.018594299 0
-0.017356442 -0.029892601 0.016555293 0
-0.018734893 -0.030978974 0.014824179 0
-0.018756436 -0.031684365 0.013614714 0
-0.020132748 -0.032519545 0.011821574 0
-0.018784603 -0.032806303 0.010937496 0
-0.02016844 -0.033455137 0.0090890722 0
-0.020188088 -0.033846553 0.0076379697 0
-0.021577174 -0.034229353 0.0058581778 0
-0.023629915 -0.034485761 0.0041049733 0
-0.02365355 -0.034566659 0.0026823906 0
-0.022329824 -0.034579758 0.0013169184 0
-0.022353815 -0.034542516 -0.00017153332 0
-0.02237704 -0.034421317 -0.0016571495 0
-0.022399817 -0.034228247 -0.0031229095 0
-0.022421306 -0.033966653 -0.0045697792 0
-0.021773396 -0.033599269 -0.0061126095 0
-0.020452706 -0.033115964 -0.0078625046 0
-0.020472536 -0.032651898 -0.009263319 0
-0.020492053 -0.032126017 -0.010618304 0
-0.020510482 -0.031546224 -0.011911904 0
-0.020528847 -0.03092479 -0.013139681 0
-0.019206828 -0.030006934 -0.014875221 0
-0.017887263 -0.029041134 -0.016648944 0
-0.017235471 -0.028133897 -0.018084982 0
-0.015926234 -0.026997488 -0.019834353 0
-0.015928769 -0.026233751 -0.020897605 0
-0.014623328 -0.025020612 -0.022634137 0
-0.013312471 -0.023671087 -0.024351856 0
-0.011993782 -0.022207536 -0.026040081 0
-0.011313081 -0.021023184 -0.027202273 0
-0.0099763274 -0.019383645 -0.028663635 0
-0.0086360453 -0.017677264 -0.030006133 0
-0.0086365426 -0.016974354 -0.030484637 0
-0.0099234274 -0.017226188 -0.030192655 0
-0.0079199793 -0.021418162 0.027009636 0
-0.0092888642 -0.022888569 0.025473617 0
-0.0092443163 -0.023675192 0.024744416 0
-0.0099394573 -0.024817508 0.023498714 0
-0.012721854 -0.026783412 0.021019051 0
-0.014103422 -0.027993217 0.019309528 0
-0.014125007 -0.028828742 0.018255912 0
-0.015503678 -0.029936967 0.016500238 0
-0.016203418 -0.030834824 0.015038504 0
-0.016220534 -0.031518735 0.013799042 0
-0.017604554 -0.032370985 0.011989441 0
-0.017623238 -0.032870598 0.010637471 0
-0.017637748 -0.033307146 0.0092327595 0
-0.019024624 -0.033848666 0.0074151275 0
-0.019042879 -0.034145124 0.0059456676 0
-0.020438358 -0.034406453 0.0042426023 0
-0.021141103 -0.034541301 0.0027147948 0
-0.020484807 -0.03455295 0.0012973557 0
-0.020509092 -0.03450264 -0.00018733011 0
-0.020532802 -0.034378354 -0.0016637294 0
-0.020555709 -0.034183577 -0.003126068 0
-0.02057779 -0.033930324 -0.0045660129 0
-0.020598827 -0.033629127 -0.0059775752 0
