# .PCD v0.7 - Point Cloud Data file format
VERSION 0.7
FIELDS x y z
SIZE 4 4 4
TYPE F F F
COUNT 1 1 1
WIDTH 1202
HEIGHT 1
VIEWPOINT 0 0 0 1 0 0 0
POINTS 1202
DATA ascii
-0.00049492245 0.006500002 -0.013510116
0.00051481201 0.006500002 -0.013574319
0.0015179198 0.0064998725 -0.013492221
0.0025492241 0.0064873709 -0.013473291
0.0034482304 0.0064206445 -0.013535739
0.0045057572 0.006248374 -0.013446326
0.0056302245 0.0061151888 -0.013076801
-0.0081966594 -0.0060992809 -0.012187418
-0.0074184593 -0.0062325462 -0.012407091
-0.0065265349 -0.0063915192 -0.012503123
-0.0054904046 -0.0064890631 -0.0125179
-0.0044925213 -0.006500002 -0.012519196
-0.0035416868 -0.0065000025 -0.012493396
-0.0024559221 -0.0064576948 -0.012445524
-0.0015206491 -0.0063968133 -0.012416732
-0.00048703296 -0.0063942336 -0.012456811
0.00050608354 -0.0063856565 -0.012445985
0.0015125148 -0.0063968133 -0.012417763
0.0024519968 -0.006451847 -0.012435282
0.0035249917 -0.006500002 -0.012504962
0.0045162369 -0.0065000011 -0.012494281
0.0054873722 -0.0064889025 -0.012519651
0.006515692 -0.0063770092 -0.012542986
0.0074555157 -0.0062156287 -0.012416529
0.0082389368 -0.0061084172 -0.012141901
-0.0090884762 -0.0055183601 -0.012058917
-0.0084805535 -0.0056050955 -0.012397898
-0.0077246353 -0.0055579962 -0.012832471
-0.0022254935 -0.0054705138 -0.012038294
-0.0015052061 -0.0054658139 -0.012148407
-0.00050687155 -0.0054658139 -0.012231299
0.00055610132 -0.0055348575 -0.012229195
0.0015126171 -0.0054658144 -0.012147467
0.002221836 -0.0054608653 -0.012038958
0.0077217738 -0.0055627725 -0.012832655
0.0085063772 -0.0056365435 -0.012378075
0.0091282465 -0.0054919384 -0.012050351
-0.0091207847 -0.0045685405 -0.012054591
-0.0085414574 -0.0045839646 -0.012389083
-0.0077905357 -0.0045172013 -0.012822634
-0.0022237119 -0.0043737665 -0.012038616
-0.0015089116 -0.0043846155 -0.012147938
-0.00050413032 -0.0043846155 -0.012231361
0.00047495085 -0.0044514169 -0.012232545
0.0015089115 -0.0043846155 -0.012147937
0.0022389174 -0.0043711844 -0.012035872
0.0077294656 -0.0045172018 -0.012857945
0.0084974682 -0.0045961645 -0.012414536
0.0091089662 -0.0045193117 -0.012061487
-0.0090881018 -0.0035074647 -0.012073467
-0.0085135475 -0.0035363175 -0.012405206
-0.0077864514 -0.0035251558 -0.012824996
-0.0022237119 -0.0035276171 -0.012038616
-0.001508911 -0.0035384663 -0.012147937
-0.00050413032 -0.0035384663 -0.012231361
0.00051139633 -0.0033890426 -0.012231055
0.0015089115 -0.0035384663 -0.012147939
0.0022365539 -0.0034847402 -0.012036295
0.0077335476 -0.0035251554 -0.012855588
0.0085117724 -0.0035305673 -0.012406268
0.0091266092 -0.0034901118 -0.012051287
-0.0090745762 -0.0024829281 -0.012081291
-0.0084895659 -0.002481936 -0.012419055
-0.0077745761 -0.0024829281 -0.012831855
-0.0022237119 -0.002681457 -0.012038616
-0.0015089114 -0.002692305 -0.012147937
-0.00050413026 -0.002692305 -0.01223136
0.0005129968 -0.0025227403 -0.012230997
0.0015089114 -0.002692305 -0.012147939
0.0022334014 -0.0025781421 -0.012036865
0.0077454238 -0.0024829283 -0.01284873
0.0085254246 -0.0024829281 -0.012398385
0.0091103464 -0.002489876 -0.01206068
-0.0090916306 -0.001534996 -0.012071459
-0.0085086832 -0.0014754395 -0.012408015
-0.007756047 -0.0014908802 -0.012842557
-0.0022218358 -0.0016160618 -0.012038959
-0.0015126169 -0.0016111138 -0.012147468
-0.00050138909 -0.0016111139 -0.012231424
0.00056237215 -0.001549741 -0.012229164
0.0015052059 -0.0016111134 -0.012148405
0.0022059812 -0.0015613392 -0.012041813
0.007763952 -0.00149088 -0.012838028
0.0085439514 -0.0014908798 -0.01238769
0.0091211153 -0.0015449226 -0.01205445
-0.009117011 -0.00050269405 -0.012056801
-0.0085450113 -0.00050269417 -0.01238705
-0.0077650109 -0.00050269428 -0.01283738
-0.0022254938 -0.00039359005 -0.01203829
-0.0015052059 -0.00038888914 -0.012148408
-0.00050687161 -0.00038888914 -0.012231297
0.00055760232 -0.00042625493 -0.012229311
0.0015126171 -0.00038888908 -0.012147466
0.0022168525 -0.00050305278 -0.01203986
0.0077549904 -0.00050269417 -0.012843196
0.0084969597 -0.00051020557 -0.012414815
0.0090900101 -0.00047181325 -0.012072411
-0.0091062384 0.00044225922 -0.012063021
-0.008513527 0.00048549232 -0.012405229
-0.0077335271 0.0004854922 -0.012855557
-0.0022237119 0.00070315576 -0.012038616
-0.0015089116 0.0006923076 -0.012147937
-0.00050413038 0.0006923076 -0.01223136
0.00050792721 0.00059672369 -0.012231224
0.0015089115 0.0006923076 -0.012147937
0.002243361 0.00040242166 -0.012035068
0.0077864742 0.0004854924 -0.012825011
0.0084943287 0.00049246551 -0.012416331
0.0090720318 0.00048549246 -0.012082802
-0.0090945233 0.0014705921 -0.01206978
-0.0085094441 0.0014775394 -0.012407588
-0.0077294442 0.001477539 -0.012857926
-0.0022237117 0.0015493132 -0.012038616
-0.0015089115 0.0015384651 -0.012147937
-0.00050413038 0.001538465 -0.012231361
0.00050643331 0.0014804867 -0.012231279
0.0014924572 0.0015336019 -0.012150228
0.0022269655 0.001303417 -0.012038022
0.0077905566 0.001477539 -0.012822661
0.0085055688 0.0014785315 -0.012409838
0.0090905577 0.001477539 -0.0120721
-0.0091397725 0.002569949 -0.012043667
-0.0084975678 0.0025197675 -0.012414449
-0.0077175661 0.0025197673 -0.012864781
-0.0022237119 0.0023954634 -0.012038616
-0.0015089115 0.0023846154 -0.012147938
-0.00050413038 0.0023846151 -0.012231362
0.00047752383 0.0023934299 -0.01223235
0.0015228206 0.002406603 -0.012146065
0.0022289976 0.0024576024 -0.012037658
0.0077919005 0.0024959971 -0.01282188
0.0085031213 0.0025313473 -0.012411249
0.009102433 0.002519767 -0.012065231
-0.0091290371 0.0035118135 -0.012049866
-0.0084790383 0.0035118125 -0.012425147
-0.0076990384 0.0035118135 -0.012875484
-0.0022218358 0.0034608622 -0.012038957
-0.0015126169 0.0034658113 -0.012147469
-0.00050138909 0.0034658115 -0.012231424
0.00052119739 0.003480023 -0.012230758
0.0014749727 0.0034781231 -0.012152444
0.0022269655 0.0035598308 -0.012038025
0.0076765185 0.0035118125 -0.012888491
0.008456517 0.0035118125 -0.012438155
0.0091065168 0.0035118135 -0.012062867
-0.0091410084 0.0042359703 -0.012042961
-0.0085571827 0.0045072921 -0.012359805
-0.0077343658 0.0045013782 -0.012835767
-0.0022288032 0.0042179506 -0.012037688
-0.0014613391 0.0042884629 -0.01212248
-0.00050357368 0.0043076938 -0.012191728
0.0005088693 0.0042985366 -0.012189459
0.0014527251 0.0042884615 -0.012122152
0.0022214502 0.0041944403 -0.012039016
0.0076929787 0.0044895522 -0.012860482
0.008572665 0.0044978405 -0.012351841
0.009134992 0.0042359703 -0.012046441
-0.0085227471 0.0053309319 -0.012157097
-0.0074036238 0.0055474257 -0.012652486
-0.0066395504 0.0059539406 -0.012750985
0.0065785404 0.0059720008 -0.012759
0.007425739 0.0055689667 -0.012625095
0.0083939051 0.0053358697 -0.012226379
-0.0073373653 0.0061110537 -0.012111664
-0.006506104 0.0061820382 -0.012444029
-0.0055322004 0.0063777319 -0.012477978
-0.0044140937 0.0064791986 -0.012546139
-0.0035203223 0.0064992723 -0.012497695
-0.0024945375 0.0065000011 -0.012490724
-0.0015151378 0.0065000015 -0.012497048
-0.00045491336 0.006500002 -0.012505339
0.00049060321 0.006500002 -0.012459926
0.0015203509 0.006500002 -0.012468244
0.0024945373 0.0065000011 -0.012490727
0.0035203225 0.0064992728 -0.012497696
0.0044457885 0.0064770263 -0.012547076
0.0054031974 0.0063809045 -0.012540623
0.0064044199 0.0062418696 -0.012370771
0.0072691417 0.0061212871 -0.012135627
-0.0092830798 -0.0061304574 -0.011312185
-0.0085029462 -0.0063224253 -0.011465056
-0.0075203436 -0.0064828633 -0.011510015
-0.0064947456 -0.0065000015 -0.011519341
-0.0054448741 -0.006444952 -0.011433979
-0.0045259511 -0.0063764364 -0.011564268
-0.0035164086 -0.0063158828 -0.011784734
-0.0027120956 -0.0062179496 -0.011940212
0.0027231139 -0.0062179496 -0.01193815
0.0035106379 -0.0063158828 -0.011787868
0.0045281206 -0.0063690473 -0.011563373
0.0054608546 -0.0064575626 -0.011452188
0.0064947456 -0.0065000015 -0.011519341
0.0075094821 -0.0064794975 -0.011516535
0.0084852418 -0.0063068825 -0.011512747
0.0093364622 -0.0061232741 -0.011283321
-0.010428386 -0.0054720384 -0.011244657
-0.0095961886 -0.0056194612 -0.011688014
-0.0089223702 -0.0059457105 -0.0119967
-0.0051764124 -0.0055164387 -0.011097932
-0.0045582415 -0.0055059432 -0.011360559
-0.0034392916 -0.0055166339 -0.011747545
-0.0027246797 -0.0054882956 -0.011937332
0.0027291502 -0.0054951925 -0.011936251
0.0034434011 -0.0055166348 -0.011746498
0.0045156046 -0.0055833361 -0.011377414
0.0051929015 -0.0055417502 -0.01109047
0.0095986594 -0.005658803 -0.011679357
0.010433031 -0.0054937806 -0.011237047
-0.010493989 -0.0045131217 -0.011261774
-0.0096002519 -0.0044955867 -0.011777771
-0.005197878 -0.0044507212 -0.011087638
-0.0044635222 -0.0044138366 -0.011398435
-0.0035442801 -0.0044340976 -0.011716289
-0.0027133517 -0.0044068824 -0.011940445
0.0027116986 -0.0044107311 -0.011940823
0.0035442805 -0.0044340976 -0.011716289
0.0045193709 -0.004462963 -0.011375935
0.0052125058 -0.004461396 -0.011080587
0.0096071716 -0.0045446218 -0.011773834
0.010487946 -0.0044647055 -0.011265311
-0.010477946 -0.0035271754 -0.01127102
-0.0096110133 -0.0035046826 -0.011771569
-0.0051871645 -0.0033778483 -0.011092744
-0.0045125997 -0.003414118 -0.011378752
-0.0034922706 -0.0034068392 -0.011731858
-0.0027212203 -0.0034444463 -0.011938237
0.0027326411 -0.0034767652 -0.011935825
0.0034922701 -0.0034068392 -0.011731858
0.0045156046 -0.0032916656 -0.011377413
0.005197545 -0.0034358993 -0.011088056
0.0095925825 -0.0035058062 -0.011782271
0.010458749 -0.0034540754 -0.011282174
-0.010461352 -0.0025573885 -0.01128063
-0.0095955133 -0.0024475257 -0.011780531
-0.0051871627 -0.00247881 -0.011092743
-0.0045139366 -0.0025133707 -0.011378202
-0.0034922708 -0.002523076 -0.011731858
-0.0027237763 -0.0025319243 -0.011937584
0.0027326406 -0.0026129787 -0.011935825
0.0034922704 -0.0025230756 -0.011731858
0.0045156046 -0.0023750006 -0.011377413
0.0051938989 -0.0026217927 -0.011089874
0.0095691271 -0.0024570238 -0.011795798
0.010487824 -0.0025359683 -0.011265382
-0.010416823 -0.0015660366 -0.011306338
-0.0095904935 -0.00149088 -0.011783431
-0.0051657171 -0.0015170957 -0.011102987
-0.0045578191 -0.0015392946 -0.011360432
-0.0034434015 -0.0015450474 -0.011746495
-0.0026952743 -0.0015335488 -0.011944142
0.0027478994 -0.0015833356 -0.011932298
0.0034392911 -0.0015450473 -0.011747545
0.0045156055 -0.0014583352 -0.011377414
0.0052205063 -0.0015931396 -0.011076741
0.0095823072 -0.0015073257 -0.01178819
0.010441039 -0.0015920881 -0.011292401
-0.010462491 -0.00051660481 -0.011279985
-0.0095590092 -0.00050269428 -0.011801605
-0.0051764124 -0.00049917854 -0.011097932
-0.004556438 -0.00049258448 -0.011360858
-0.0034615765 -0.0004782053 -0.011741328
-0.0026910354 -0.00046854254 -0.011945397
0.0027538247 -0.000416667 -0.011930789
0.0034434011 -0.00045495521 -0.011746494
0.0045156041 -0.00054166699 -0.011377415
0.0052146097 -0.00040686311 -0.011079694
0.0096009914 -0.00050269422 -0.011777401
0.010451409 -0.00052966079 -0.011286407
-0.010477968 0.0004854924 -0.011271047
-0.0095679713 0.00048549229 -0.011796438
-0.0052011926 0.00046088098 -0.011085801
-0.0045021474 0.00044591798 -0.011382882
-0.0035045489 0.0004686118 -0.011728332
-0.0027115787 0.00047489308 -0.011940575
0.0027326408 0.00061298063 -0.011935825
0.0034922701 0.0005230768 -0.011731857
0.0045156055 0.00037499992 -0.011377414
0.0052085365 0.00063942291 -0.011082591
0.0095920311 0.00048549235 -0.011782566
0.010444178 0.00047873706 -0.011290583
-0.010471238 0.0014659588 -0.011274937
-0.0095639555 0.0014921081 -0.011798763
-0.0051981085 0.001393821 -0.01108734
-0.0045007188 0.0013309745 -0.011383473
-0.0035030495 0.0013463744 -0.011728714
-0.0027115785 0.0013695244 -0.011940576
0.0027326411 0.0014767651 -0.011935825
0.0034922699 0.0014068384 -0.011731858
0.0045156046 0.001291665 -0.011377413
0.0052085351 0.0014973319 -0.011082593
0.009610557 0.0014775391 -0.011771874
0.010455549 0.0014765465 -0.01128401
-0.010512549 0.0025207596 -0.011251083
-0.0096530542 0.0025051984 -0.011747323
-0.0051887743 0.0023940175 -0.011092135
-0.0044953981 0.0024687948 -0.011385554
-0.0035002916 0.0024624048 -0.011729169
-0.002730777 0.0024327433 -0.011936144
0.002709042 0.002410731 -0.011941301
0.0035394274 0.0024340989 -0.011717901
0.0045118365 0.0024629645 -0.011378889
0.0051958752 0.0024026956 -0.011088669
0.0096224351 0.002519767 -0.011765018
0.010467451 0.0025207598 -0.011277135
-0.010501177 0.0035185684 -0.011257652
-0.0096490392 0.003511813 -0.011749641
-0.0052032196 0.0034796365 -0.011084894
-0.0045156046 0.0035833346 -0.011377414
-0.0034942161 0.0035658956 -0.011731734
-0.0026806435 0.0035227176 -0.011947738
0.0027478994 0.0034871791 -0.011932296
0.0034392911 0.0035166314 -0.01174755
0.0045156041 0.0035833351 -0.011377415
0.0052205068 0.0034796372 -0.011076741
0.009626518 0.0035118128 -0.011762655
0.010478822 0.0035185681 -0.011270572
-0.010435177 0.0045200647 -0.011275207
-0.0096151922 0.0044779335 -0.011750243
-0.0052150204 0.0042140321 -0.011079185
-0.0044707311 0.0043302448 -0.011282667
-0.0034817788 0.004370369 -0.011520999
-0.002528639 0.0044352049 -0.011558198
-0.0014788588 0.0045000012 -0.011521207
-0.00049880659 0.0045000012 -0.011542565
0.0005178547 0.0045000012 -0.011471944
0.0015091621 0.0045000012 -0.011533001
0.0025216206 0.0044451579 -0.011583083
0.0034469855 0.0043805731 -0.011526392
0.0045051724 0.0043363073 -0.011286158
0.0052020522 0.0042140321 -0.011086
0.0096529396 0.0044538584 -0.011731231
0.01047046 0.0045214412 -0.011254611
-0.0100144 0.0050761104 -0.011432
-0.0096849324 0.0055200038 -0.0113593
-0.0086163748 0.0057630967 -0.011794978
-0.0078890603 0.0059760101 -0.011996401
0.0085707093 0.0057244366 -0.011848774
0.0095986379 0.0055025746 -0.011417424
0.010282225 0.0052452446 -0.011196103
-0.0084322169 0.006175267 -0.011347957
-0.007484728 0.0063314429 -0.011507083
-0.0064920117 0.0064627165 -0.011494802
-0.0055050948 0.0064953985 -0.01151401
-0.004523146 0.006500002 -0.011512771
-0.0034776421 0.0065000015 -0.011489923
-0.0024983606 0.0065000025 -0.011459143
-0.0014630707 0.0065000015 -0.01157167
-0.00044467088 0.0065000015 -0.011544212
0.00048754431 0.0065000011 -0.011391948
0.0015110222 0.0065000011 -0.011538042
0.0025277587 0.006500002 -0.011461467
0.0034776423 0.0065000015 -0.011489923
0.004523146 0.006500002 -0.011512772
0.0055050948 0.006495398 -0.01151401
0.006432517 0.00647547 -0.011445365
0.0073947022 0.0063690841 -0.011479164
0.0082846461 0.0061764629 -0.011435541
0.0092827678 0.0060538654 -0.0110745
-0.01033323 -0.0061521772 -0.010308581
-0.0095237792 -0.00636718 -0.010515327
-0.0085099461 -0.0064973012 -0.010515723
-0.0075026266 -0.0064847246 -0.010479479
-0.0065434133 -0.0063666003 -0.010543142
-0.0057528573 -0.0062920754 -0.010859424
0.0057352525 -0.0062851026 -0.010865015
0.0065470682 -0.0063664 -0.010535233
0.007472184 -0.0064917062 -0.010457524
0.008521229 -0.0064948592 -0.010510312
0.0095451092 -0.0063464143 -0.010547909
0.010310321 -0.0061560832 -0.010321815
-0.012265209 -0.0052353614 -0.010178002
-0.011423898 -0.0054433313 -0.010541415
-0.010679207 -0.005847468 -0.010678954
-0.0070285569 -0.0054814834 -0.010023701
-0.0064350516 -0.0054971534 -0.010411985
-0.0057213074 -0.0055291727 -0.0108251
0.0057134414 -0.0055352072 -0.010828742
0.0065040719 -0.0054775663 -0.010367855
0.0070403209 -0.0054658139 -0.010015534
0.010665851 -0.0058493721 -0.010686691
0.011434919 -0.005435409 -0.010533388
0.012284409 -0.0052307313 -0.010166962
-0.012310484 -0.0045155864 -0.010213026
-0.011517639 -0.0045133284 -0.010670765
-0.010976735 -0.0043927333 -0.010983034
-0.0070268949 -0.0044375001 -0.01002485
-0.0065301596 -0.0044198721 -0.010352078
-0.005658899 -0.0044494867 -0.010856804
0.0056741824 -0.0044469922 -0.010849184
0.0065063401 -0.004392039 -0.010367327
0.0070372503 -0.004384615 -0.01001765
0.010964801 -0.0040092203 -0.01099
0.011525937 -0.0045303325 -0.010666014
0.012361462 -0.0045035481 -0.010183635
-0.012314251 -0.0034633891 -0.01021085
-0.011467538 -0.0035229232 -0.010699687
-0.010964801 -0.0033133901 -0.0109899
-0.0070285574 -0.0033425901 -0.0100237
-0.006480352 -0.0034513599 -0.010383541
-0.0056930273 -0.0034271267 -0.010839452
0.0056897732 -0.0033516632 -0.01084108
0.0065019652 -0.0034901509 -0.010369525
0.0070372503 -0.0035384651 -0.01001765
0.010967751 -0.0031966302 -0.010988301
0.011459586 -0.0035305633 -0.010704319
0.01233614 -0.0034551313 -0.010198249
-0.012303795 -0.0024819921 -0.010216884
-0.011517022 -0.002506888 -0.010671116
-0.010969001 -0.0023750102 -0.010987534
-0.0070285574 -0.0024259267 -0.0100237
-0.0064803516 -0.0025803149 -0.010383541
-0.0056951372 -0.0025846814 -0.010838401
0.0056897723 -0.0024498422 -0.01084108
0.0065008942 -0.0026126518 -0.010370159
0.0070372503 -0.002692305 -0.01001765
0.010991901 -0.0026134001 -0.010974301
0.011570047 -0.0025269084 -0.010640547
0.012350665 -0.0024723248 -0.010189861
-0.012302137 -0.0014530912 -0.010217842
-0.011523219 -0.0015238321 -0.010667569
-0.0109738 -0.0014035651 -0.01098475
-0.0070285569 -0.0015092602 -0.010023701
-0.0064397659 -0.0015703728 -0.010409188
-0.0057117129 -0.0015745513 -0.010829977
0.0057120821 -0.0015059034 -0.010829596
0.0065050125 -0.0015807537 -0.010366897
0.0070372513 -0.0016346168 -0.010017633
0.010969001 -0.0015903967 -0.010987567
0.011495749 -0.0015456601 -0.010683452
0.012318574 -0.0014357757 -0.010208381
-0.012367416 -0.00047569699 -0.010180148
-0.011506142 -0.00048376247 -0.010677417
-0.0109857 -0.00070557755 -0.0109779
-0.0070285536 -0.00059259305 -0.010023701
-0.006435052 -0.00042962987 -0.010411983
-0.0056915819 -0.00038653874 -0.010840297
0.0056834035 -0.0004496086 -0.010843979
0.0064949216 -0.00045044793 -0.010373929
0.0070285536 -0.00059259305 -0.0100237
0.0109565 -0.00039568037 -0.010994775
0.011501675 -0.00052171701 -0.010680027
0.012350684 -0.00043208685 -0.010189845
-0.012364357 0.0004976904 -0.010181925
-0.011479313 0.00048552631 -0.010692917
-0.0070285536 0.00032407403 -0.0100237
-0.0064803516 0.00058031682 -0.01038354
-0.0056898855 0.00069230772 -0.010841084
0.0056847888 0.0005489316 -0.010843631
0.0064889579 0.00051455654 -0.01037833
0.0070285574 0.00032407403 -0.0100237
0.010964876 0.00053953379 -0.010989951
0.011470832 0.00048464604 -0.01069783
0.012324353 0.000453905 -0.010205047
-0.01233062 0.0014380694 -0.010201414
-0.011509302 0.0014666141 -0.010675607
-0.0070285569 0.0012407401 -0.010023701
-0.006480352 0.001451359 -0.010383541
-0.0056898855 0.001538465 -0.010841085
0.0056867935 0.0014514975 -0.010842632
0.0064913146 0.0013695244 -0.010376819
0.0070285574 0.0012407401 -0.0100237
0.01097564 0.001484486 -0.010983742
0.011517504 0.0014523603 -0.01067089
0.012320522 0.0013989165 -0.010207266
-0.012352277 0.0024799237 -0.010188911
-0.011487561 0.0025197675 -0.01068816
-0.0070298845 0.0024833342 -0.010022781
-0.0065271663 0.0024198727 -0.010354156
-0.0056898845 0.0023846149 -0.010841087
0.0056999517 0.002397436 -0.010836146
0.0064821378 0.0024643268 -0.010382205
0.0070298859 0.0024833342 -0.010022781
0.01098736 0.0025128182 -0.01097698
0.011507452 0.0025207598 -0.010676693
0.012332791 0.0024897507 -0.010200173
-0.01232137 0.0035019873 -0.010206764
-0.011483479 0.0035118121 -0.010690515
-0.0070285536 0.0036851871 -0.0100237
-0.0064397659 0.0034971503 -0.010409186
-0.0056878552 0.0034658106 -0.010842041
0.0056830575 0.0034826 -0.010844445
0.006504477 0.0035584476 -0.010368969
0.0070285536 0.0036851871 -0.0100237
0.010997067 0.0033651302 -0.010971367
0.011503139 0.0035251474 -0.010679182
0.012298633 0.0035019873 -0.010219896
-0.01226449 0.0045487164 -0.010216346
-0.011369961 0.0044504972 -0.010739274
-0.0070219007 0.0041944399 -0.010028301
-0.0064289751 0.00431719 -0.010326915
-0.0055424413 0.0044145319 -0.010587186
-0.0045266286 0.0045000012 -0.010499946
-0.0034921139 0.0045000012 -0.010489325
-0.0024967454 0.0045000012 -0.010472467
-0.001458487 0.0045000012 -0.010487607
-0.00046099623 0.0045000012 -0.01052181
0.00051715807 0.0045000012 -0.010456004
0.0014678016 0.0045000012 -0.010494906
0.0025465498 0.0045000012 -0.010522489
0.0034680604 0.0045000012 -0.010478195
0.0044753202 0.0045000012 -0.010494276
0.005492019 0.00443483 -0.01054157
0.0064058579 0.0043370347 -0.010306511
0.0070219007 0.0041944399 -0.010028301
0.011394915 0.0044237743 -0.010727338
0.012249257 0.0045352201 -0.010226718
-0.012335401 0.0051220818 -0.010069344
-0.011455645 0.005435403 -0.010393505
-0.010672878 0.0056146001 -0.010708974
-0.0096974904 0.0059715952 -0.010958951
0.0097363302 0.0059623672 -0.010950367
0.010759785 0.0057555912 -0.01056236
0.011306858 0.0053720353 -0.010525431
0.0121606 0.0052194181 -0.010123994
-0.0110959 0.0060422304 -0.01004525
-0.010426612 0.0061510615 -0.010250618
-0.0094027193 0.0062689069 -0.010567752
-0.0084309075 0.0064540608 -0.010488066
-0.0075095044 0.0064959377 -0.010450093
-0.0064904029 0.006500002 -0.010503565
-0.0055006039 0.0065000015 -0.010487976
-0.0044870023 0.0065000011 -0.010493832
-0.0035544655 0.006500002 -0.010458834
-0.0025397807 0.0065000015 -0.010506609
-0.0015286413 0.006500002 -0.010493899
-0.00043403899 0.006500002 -0.010529095
0.00053804129 0.006500002 -0.010495707
0.0015147765 0.006500002 -0.010479172
0.0024929179 0.0065000011 -0.010476872
0.003566738 0.0065000015 -0.010469825
0.0044870013 0.0065000011 -0.010493832
0.0055006039 0.0065000015 -0.010487974
0.0064904029 0.006500002 -0.010503564
0.0075095035 0.0064959358 -0.010450094
0.0083773993 0.0064496971 -0.010543455
0.0093803871 0.0062951799 -0.010522453
0.010531682 0.0061521777 -0.010190002
-0.011268321 -0.0061241565 -0.0093467413
-0.010525201 -0.0063794842 -0.0094751101
-0.0094861425 -0.006500002 -0.0094861444
-0.0084446529 -0.0064497283 -0.0094679017
-0.0076072654 -0.0063293772 -0.0096933544
0.0075994185 -0.0063119656 -0.0096896449
0.0084511014 -0.006452994 -0.009461958
0.0094861435 -0.006500002 -0.0094861425
0.010549481 -0.0063670669 -0.0094838915
0.011282301 -0.0061231162 -0.0093315607
-0.013398283 -0.0051663727 -0.0092842244
-0.012560127 -0.0054708007 -0.0095080175
-0.011661905 -0.0058432156 -0.0096325334
-0.0081416694 -0.0055641038 -0.009146356
-0.0075900499 -0.0055117789 -0.0096030403
0.0075082886 -0.0055395039 -0.0096660992
0.0081395349 -0.005465813 -0.0091482978
0.011639418 -0.0058480245 -0.0096455449
0.012532809 -0.005494873 -0.009491452
0.013391443 -0.0051681101 -0.0092881806
-0.014158225 -0.0043118326 -0.0091175996
-0.013509694 -0.0045107645 -0.0095139993
-0.012839421 -0.004501339 -0.0099076405
-0.0081487317 -0.0044668806 -0.0091398424
-0.007497122 -0.0044172928 -0.0096757291
0.007540179 -0.0044504274 -0.0096425023
0.0081450343 -0.0043846145 -0.0091432389
0.012851454 -0.0045329933 -0.0099007282
0.013476265 -0.0045076455 -0.0095343096
0.014162902 -0.0042826924 -0.0091185262
-0.014182019 -0.0032703311 -0.0091066938
-0.013511229 -0.003518655 -0.0095197828
-0.012792279 -0.0034796756 -0.0099348612
-0.0081416713 -0.0033269222 -0.0091463551
-0.0075477632 -0.003413338 -0.0096361386
0.0075266939 -0.0033632487 -0.0096522514
0.0081450343 -0.0035384656 -0.0091432389
0.012867101 -0.0035252178 -0.0098916907
0.013523811 -0.0035265961 -0.0095125325
0.014163775 -0.003269085 -0.0091178175
-0.014158026 -0.0024456838 -0.0091238311
-0.013450868 -0.0024903845 -0.0095546329
-0.012813674 -0.0024944639 -0.0099225128
-0.0081416694 -0.0024166666 -0.009146356
-0.00754879 -0.002515333 -0.0096353097
0.0075266361 -0.0024658116 -0.0096521741
0.0081450343 -0.002692305 -0.0091432389
0.012866268 -0.0025123514 -0.009892174
0.013532452 -0.0024963969 -0.0095075434
0.014160949 -0.0024458463 -0.0091196867
-0.014191501 -0.0014409728 -0.0090985307
-0.01352309 -0.0015168508 -0.0095129404
-0.01280475 -0.0015137125 -0.0099276751
-0.0081302449 -0.0014759633 -0.009156826
-0.0075907544 -0.0015388377 -0.009602095
0.007591485 -0.0015102924 -0.0096013276
0.0081505347 -0.0016111134 -0.0091381799
0.012865413 -0.0014994876 -0.0098926565
0.013523241 -0.0014718932 -0.0095128622
0.014192372 -0.0014455002 -0.0090959249
-0.01412751 -0.00067159673 -0.009145298
-0.013461961 -0.00048471286 -0.0095482292
-0.012817601 -0.00047962536 -0.0099202497
-0.0081416704 -0.00051923114 -0.0091463551
-0.0075914836 -0.00048166921 -0.0096013267
0.0075907535 -0.00045352598 -0.009602095
0.0081395339 -0.00038888925 -0.0091482988
0.012845539 -0.00050136098 -0.0099041415
0.013551569 -0.00052659452 -0.0094965063
0.014137659 -0.00066941505 -0.00913628
-0.014156914 0.00036825205 -0.0091227116
-0.013522808 0.00048278112 -0.0095131015
-0.012868162 0.0005374038 -0.0098910416
-0.0081416694 0.00039102571 -0.009146356
-0.0075404905 0.00046387542 -0.0096417507
0.0075487909 0.00052432122 -0.0096353106
0.0081340866 0.00067735033 -0.0091534145
0.012845176 0.00053343555 -0.0099043446
0.013513622 0.00048733005 -0.0095184119
0.014156053 0.00039562784 -0.0091220215
-0.014163955 0.0014420196 -0.0091162538
-0.013460911 0.0015225447 -0.0095488383
-0.01282316 0.0014107408 -0.0099170506
-0.0081416694 0.0013012812 -0.0091463551
-0.007539399 0.0013474884 -0.0096426299
0.0075477641 0.0014223236 -0.0096361395
0.0081370696 0.0014850447 -0.0091506392
0.012856656 0.0014457094 -0.0098977126
0.013505518 0.0014865124 -0.0095230984
0.014148954 0.0014510115 -0.0091266595
-0.014149856 0.0024876189 -0.0091257459
-0.013530171 0.0024891545 -0.0095088501
-0.012874432 0.0026132411 -0.0098874457
-0.0081431754 0.0024492524 -0.0091450159
-0.0075309472 0.0024627941 -0.009649476
0.0075055123 0.0024110589 -0.0096693402
0.0081522744 0.0024584858 -0.0091365241
0.01285114 0.0025070894 -0.0099009061
0.013507591 0.0024896807 -0.009521896
0.014155601 0.0024888562 -0.0091206394
-0.014161009 0.0034845213 -0.0091157723
-0.013485061 0.0034877204 -0.009534901
-0.012841079 0.0035272522 -0.0099067017
-0.0081302468 0.0035715825 -0.009156826
-0.0075504095 0.0035527076 -0.0096338866
0.0075900485 0.0034981957 -0.0096030384
0.0081292614 0.0035019726 -0.009157938
0.012818922 0.0035272527 -0.0099195065
0.013494845 0.0034574615 -0.0095292563
0.014164154 0.003485197 -0.0091129784
-0.014148825 0.0044714189 -0.0091000097
-0.01346862 0.0044708266 -0.0095256055
-0.012832845 0.0042518522 -0.009911472
-0.0081339367 0.0042817434 -0.0091049885
-0.0074624438 0.0043733045 -0.0094705103
-0.006465727 0.0045000012 -0.0094633885
-0.0054567079 0.0045000012 -0.0095212543
-0.0044549746 0.0045248074 -0.0094616106
-0.0035360272 0.0045684706 -0.0095609669
-0.0025383218 0.0046025654 -0.009752268
-0.0015776629 0.0046725483 -0.0098876646
-0.00051081629 0.0047051287 -0.0099777151
0.00051081629 0.0046948716 -0.0099777151
0.0015698519 0.0046916669 -0.0098848725
0.0025616905 0.0046013338 -0.0097472128
0.0035129888 0.0046298243 -0.0095067462
0.0044925888 0.0045266678 -0.0094254389
0.0055201836 0.0045000012 -0.0094852755
0.0064572762 0.0045000012 -0.0094728945
0.0074597616 0.0043596462 -0.0095105926
0.0081181778 0.0042414502 -0.0091388552
0.012827159 0.0042518522 -0.0099147381
0.01346371 0.0044606999 -0.0095288688
0.014149372 0.0044715386 -0.0090995207
-0.014077301 0.0051649599 -0.0090404199
-0.013354703 0.005383763 -0.0093360618
-0.012473775 0.0057211868 -0.0095996009
-0.011809237 0.0058758506 -0.0098497793
-0.0041500921 0.0055133346 -0.0090897763
-0.0034939288 0.0054948707 -0.0093602641
-0.0025223666 0.0055045583 -0.0096666701
-0.0015386018 0.005484656 -0.0098709334
-0.00051081629 0.0055051288 -0.0099777142
0.00051081635 0.0054948712 -0.0099777151
0.0015142105 0.0054936507 -0.0098748403
0.0025234642 0.0054948712 -0.0096664522
0.0034761978 0.0055158734 -0.0093668997
0.0041500921 0.0054866662 -0.0090897772
0.011752063 0.0058658994 -0.0098929089
0.012460263 0.0056304014 -0.009667608
0.013379767 0.0053864624 -0.0093193231
0.014077301 0.0051649599 -0.0090404199
-0.012298371 0.0060810773 -0.0092925336
-0.011588397 0.0062427251 -0.0093914559
-0.01043682 0.0064123091 -0.0095103029
-0.009431418 0.0064863674 -0.0095449556
-0.0084925629 0.0065000015 -0.0094911102
-0.0074905423 0.006500002 -0.0094914967
-0.006501615 0.0065000015 -0.0095019592
-0.0055004559 0.0065000015 -0.0094876969
-0.0044951038 0.0064760698 -0.0094560208
-0.0035073976 0.0064215693 -0.0095267706
-0.0025119807 0.0063888896 -0.0097788665
-0.0015977223 0.0062580267 -0.0098616332
-0.00051081617 0.0063051288 -0.009977716
0.00050681754 0.0062999995 -0.0099781882
0.001425716 0.0062566684 -0.0098877056
0.0025424042 0.0064012352 -0.0097786486
0.0035029224 0.0064111133 -0.0095280707
0.0044951024 0.0064726518 -0.0094560226
0.0055004559 0.0065000015 -0.0094876979
0.0065016155 0.0065000015 -0.0095019601
0.0074905418 0.006500002 -0.0094914967
0.0084925629 0.0065000015 -0.0094911093
0.0094314171 0.0064863688 -0.0095449546
0.010466098 0.0064127673 -0.0094924178
0.0116522 0.0062487163 -0.0093433056
0.012378458 0.0060531786 -0.00928827
-0.0121468 -0.0060915267 -0.0082825795
-0.011480843 -0.0063151978 -0.0085059218
-0.010493521 -0.0064982362 -0.0085091563
-0.0094725881 -0.0064597093 -0.0084582018
-0.0087051885 -0.0063088997 -0.0086933626
0.0087015182 -0.0063205138 -0.0087015182
0.0094568562 -0.0064460062 -0.0084389951
0.010493441 -0.0064982525 -0.0085092019
0.011477158 -0.0063160877 -0.0085080517
0.012143512 -0.006092364 -0.008284484
-0.014196611 -0.0050697825 -0.008311877
-0.013523574 -0.0053519676 -0.0085040284
-0.01260081 -0.0057862345 -0.0085490691
-0.0091362335 -0.005512821 -0.0081524784
-0.0086938702 -0.0055089057 -0.0086175064
0.0086571174 -0.005483977 -0.0086536957
0.0091410922 -0.0054492224 -0.0081473878
0.012606726 -0.0057871542 -0.0085375914
0.013523337 -0.0053520263 -0.0085041625
0.014196612 -0.0050697825 -0.008311877
-0.014645661 -0.0045380006 -0.0084603336
-0.0091519849 -0.0043846159 -0.0081356689
-0.0086266221 -0.0044342345 -0.0086847916
0.0086524924 -0.0043846155 -0.0086594233
0.0091433367 -0.0043944083 -0.0081449132
0.014574007 -0.004544422 -0.0085758297
-0.01468728 -0.0033364184 -0.0085098315
-0.0091393143 -0.0033700154 -0.0081492504
-0.0086609805 -0.0034241837 -0.0086503271
0.0086539965 -0.0034710858 -0.0086572543
0.0091433357 -0.003542382 -0.0081449132
0.014698217 -0.0034313872 -0.0084981993
-0.014714635 -0.00230747 -0.0084702736
-0.0091367681 -0.0024298427 -0.0081519857
-0.0086609805 -0.0025439865 -0.0086503262
0.0086529031 -0.0025873201 -0.0086582722
0.0091433357 -0.0026903467 -0.0081449132
0.014653626 -0.0023837199 -0.008571933
-0.014666508 -0.0014115492 -0.0085318768
-0.009146356 -0.0014807709 -0.0081416704
-0.0086990669 -0.0015552114 -0.0086122062
0.0086760744 -0.0015777127 -0.0086348625
0.0091382451 -0.0016058901 -0.0081504527
0.014697165 -0.0015104231 -0.0084824339
-0.014696881 -0.00060388679 -0.0085066734
-0.0091568269 -0.00052403886 -0.0081302449
-0.0086789643 -0.00047184539 -0.0086329067
0.0086990567 -0.00045368468 -0.008612196
0.0091410913 -0.00040133268 -0.0081473878
0.014669127 -0.00066124205 -0.008550466
-0.014688973 0.00043447083 -0.0085058892
-0.009146356 0.00041666659 -0.0081416694
-0.0086528482 0.00047741132 -0.0086586019
0.0086609805 0.00054398744 -0.0086503271
0.0091433357 0.0006413816 -0.0081449151
0.014667929 0.00039583424 -0.0085443193
-0.014706261 0.0015303044 -0.0084808199
-0.009146357 0.001326922 -0.0081416704
-0.0086539388 0.0013537847 -0.0086574303
0.0086609814 0.0014241831 -0.0086503262
0.0091433376 0.0014934152 -0.0081449132
0.014656854 0.0014467086 -0.008560406
-0.014670639 0.0026520626 -0.0085316338
-0.0091398414 0.0024668805 -0.0081487317
-0.0086496212 0.0024598301 -0.0086611751
0.0086231651 0.0024342362 -0.0086880112
0.0091533232 0.0023936557 -0.0081340056
0.014673081 0.0024765322 -0.008529298
-0.014651797 0.0036321031 -0.0085547389
-0.0091463551 0.003564104 -0.0081416685
-0.0086584715 0.003555129 -0.0086534536
0.0086938711 0.0035089031 -0.0086175092
0.0091382451 0.0034945379 -0.0081504537
0.01467046 0.0034866231 -0.0085342079
-0.014662296 0.0043964093 -0.0085077314
-0.0091506792 0.0042414507 -0.0081054764
-0.0084856544 0.0043874257 -0.0085067954
-0.0074954103 0.0045000012 -0.0085032079
-0.0064953193 0.0045000012 -0.0084694475
-0.0055598575 0.0045866687 -0.008512008
-0.0047360789 0.0046244441 -0.0088554975
0.0047096545 0.0046666665 -0.0088410042
0.0055621276 0.0045766686 -0.0085280957
0.0065061813 0.0045000012 -0.0084873214
0.0075008199 0.0045000012 -0.0084890267
0.0085235629 0.0043744203 -0.0085089263
0.0091251526 0.0042649587 -0.0081279911
0.014657656 0.0044092331 -0.008519697
-0.014367145 0.0054427907 -0.0084584747
-0.013659993 0.0058210203 -0.0088188099
-0.0055069569 0.0054944446 -0.0083349086
-0.0046756188 0.0054866658 -0.0088307736
0.0046756202 0.0055 -0.0088307746
0.0055165668 0.0055044442 -0.0083282813
0.013586201 0.0058564059 -0.0088262418
0.014380468 0.0054390468 -0.0084530208
-0.014068201 0.0060442905 -0.008122256
-0.013395103 0.0061881458 -0.0084405998
-0.012675451 0.006353172 -0.0084344391
-0.011454934 0.0064721438 -0.0085501922
-0.010485216 0.0065000006 -0.0084387334
-0.0095217014 0.006500002 -0.0085075814
-0.008506502 0.006500002 -0.0084849466
-0.0074882959 0.006500002 -0.0084904395
-0.0064537022 0.006500002 -0.0085121961
-0.0055564553 0.0063790721 -0.0084878514
-0.0047029434 0.0063222214 -0.0088489689
0.0047029434 0.0063333334 -0.0088489689
0.0055519324 0.0064143804 -0.0085305767
0.0064486274 0.0065000011 -0.0085280957
0.0074968785 0.0065000011 -0.0085126273
0.0085020037 0.0065000011 -0.0085120294
0.0095067974 0.006500002 -0.0084960032
0.010485217 0.0065000006 -0.0084387343
0.011458187 0.006472169 -0.0085482439
0.01266047 0.0063660443 -0.0084112184
0.01339579 0.0061763958 -0.0084664617
0.014068201 0.0060442905 -0.008122256
-0.012422926 -0.0062196152 -0.0074329185
-0.011526663 -0.006476433 -0.0075190286
-0.010457524 -0.0064917062 -0.007472184
-0.0096896449 -0.0063119656 -0.0075994181
0.0096986284 -0.0063164853 -0.0075926203
0.010457525 -0.0064917062 -0.007472184
0.011526599 -0.0064764498 -0.0075190663
0.012422926 -0.0062196143 -0.007432919
-0.014437699 -0.005198814 -0.0074390299
-0.01348359 -0.0056570098 -0.0075327829
-0.012814345 -0.0059402003 -0.0077204704
-0.010015534 -0.0054658139 -0.0070403209
-0.0096661001 -0.0055395039 -0.00750829
0.0096888561 -0.0055257501 -0.007480293
0.010015534 -0.0054658139 -0.0070403209
0.012814345 -0.0059402003 -0.0077204704
0.013483591 -0.0056570093 -0.0075327829
0.014437698 -0.0051988028 -0.007439082
-0.014953519 -0.0044829897 -0.0076004323
-0.01001765 -0.004384615 -0.0070372503
-0.0096425023 -0.0044504269 -0.007540179
0.0096160714 -0.0044441959 -0.0075731729
0.01001765 -0.004384615 -0.0070372503
0.014932969 -0.0044645602 -0.0077294423
0.014999998 -0.0044528805 -0.0072424612
-0.014985842 -0.0033762518 -0.0074954955
-0.01001765 -0.0035384651 -0.0070372503
-0.0096522514 -0.0033632484 -0.0075266948
0.0096536493 -0.0034145317 -0.0075251972
0.01001765 -0.0035384651 -0.0070372503
0.014967273 -0.0033298559 -0.0077965637
0.014999999 -0.0035165469 -0.0072533921
-0.014983588 -0.0024198743 -0.0075455564
-0.01001765 -0.002692305 -0.0070372503
-0.0096521722 -0.0024658118 -0.0075266352
0.0096545042 -0.0025534171 -0.0075241369
0.01001765 -0.002692305 -0.0070372503
0.014977096 -0.0024322388 -0.007725718
0.014999997 -0.0025491898 -0.0072721336
-0.01498529 -0.0014468459 -0.0075070281
-0.010017634 -0.0016346168 -0.0070372503
-0.0096013267 -0.0015102925 -0.007591485
0.0096867336 -0.0015608999 -0.0074832733
0.010019768 -0.0016111134 -0.0070341807
0.014969074 -0.0014173287 -0.007786578
0.014999996 -0.0014530941 -0.0072478801
-0.014987832 -0.00052740052 -0.0074878298
-0.010023701 -0.00059259305 -0.0070285536
-0.0096020931 -0.00045352589 -0.007590753
0.0096774595 -0.00041339363 -0.0074954759
0.010015534 -0.00038888922 -0.0070403237
0.01497863 -0.00062624173 -0.0077026524
0.014999999 -0.0004205787 -0.0072708838
-0.014985891 0.00044670468 -0.0075152754
-0.0100237 0.00032407403 -0.0070285574
-0.0096353097 0.00052432116 -0.0075487909
0.0096475165 0.00062380952 -0.0075331358
0.01001765 0.00069230754 -0.0070372503
0.014971371 0.00038232427 -0.00775511
0.014999999 0.000457702 -0.0072516925
-0.014984569 0.0014920544 -0.0075005461
-0.010023701 0.0012407401 -0.0070285569
-0.0096361404 0.0014223235 -0.0075477627
0.0096467137 0.0015001858 -0.0075341337
0.01001765 0.001538465 -0.0070372503
0.014973243 0.0014364455 -0.0077368398
0.014999996 0.0015032426 -0.0072549353
-0.014984916 0.0024967459 -0.007501754
-0.010022781 0.0024833342 -0.0070298859
-0.0096693411 0.0024110589 -0.00750551
0.0096370215 0.0023852689 -0.0075463122
0.01001765 0.0023846151 -0.0070372503
0.014970567 0.0024740053 -0.0077490858
0.014999999 0.0025682834 -0.0072543491
-0.014979701 0.003456969 -0.0075629205
-0.0100237 0.0036851871 -0.0070285536
-0.0096030403 0.0034981954 -0.0075900489
0.0096545443 0.0034694988 -0.007524129
0.010019767 0.0034658103 -0.0070341802
0.014967436 0.0034798998 -0.0077636549
0.015000002 0.00343296 -0.0072663226
-0.014971414 0.0044460646 -0.00739802
-0.010028301 0.0041944399 -0.0070219007
-0.0094724 0.0043801856 -0.0074601006
-0.0085207401 0.0045000012 -0.007448602
-0.0074662734 0.0045125009 -0.0074808635
-0.0065550068 0.0046155569 -0.0076445951
0.0065866318 0.0046066674 -0.0076490035
0.0074608414 0.0045156879 -0.0074608424
0.0084890258 0.0045000012 -0.0075008189
0.0095080072 0.0043589757 -0.0074700839
0.0100113 0.0042179502 -0.0070464606
0.014957965 0.0045638531 -0.0074875955
0.015000001 0.0041618142 -0.0072422889
-0.01466109 0.0055106692 -0.0073646968
-0.0070696152 0.0055 -0.0070696166
-0.0065163374 0.0055039213 -0.0075680665
0.0065078931 0.0054876544 -0.0075757643
0.0070696152 0.0055666706 -0.0070696152
0.014648649 0.0055321073 -0.0073820502
-0.014162195 0.0061017401 -0.0073405248
-0.013509431 0.0063887388 -0.0073241666
-0.012465021 0.0064954311 -0.0075273197
-0.01150715 0.006500002 -0.0075076749
-0.010486433 0.0065000015 -0.0075048129
-0.0095009143 0.006500002 -0.0074798902
-0.0084761167 0.0065000015 -0.0074786367
-0.0074643618 0.0064870976 -0.0075134221
-0.0066065611 0.0063924738 -0.0076507726
0.006534535 0.0063485396 -0.0076804552
0.0074956804 0.0064929845 -0.0074861324
0.0085612247 0.006500002 -0.0074913702
0.0095374919 0.0065000011 -0.0074660396
0.010497078 0.006500002 -0.0074877855
0.011539125 0.0065000011 -0.0075091375
0.012467269 0.0064951451 -0.0075486107
0.013542359 0.0063806456 -0.0073472285
0.014146494 0.0061105671 -0.0073157675
-0.013196156 -0.0061110854 -0.0063987183
-0.012488982 -0.0064073321 -0.0064735278
-0.011519341 -0.0065000015 -0.006494747
-0.010531919 -0.0063664 -0.0065526525
0.010532191 -0.0063640578 -0.0065606134
0.011519341 -0.0065000015 -0.0064947456
0.012488985 -0.0064073284 -0.0064735431
0.013220808 -0.006104175 -0.0063740043
-0.014551052 -0.0053669233 -0.0065113441
-0.013748893 -0.0057859514 -0.0065491679
-0.010368879 -0.0054658134 -0.0065028449
0.010326221 -0.0055231419 -0.0065706195
0.013748893 -0.0057858834 -0.0065494706
0.014538578 -0.0053766514 -0.0065247943
0.015000001 -0.0050096801 -0.0061561451
-0.014999992 -0.0045067808 -0.0065112594
-0.010368543 -0.0043846155 -0.0065036165
0.010390997 -0.0044423081 -0.0064681023
0.014999991 -0.0045067305 -0.0065453155
-0.014999995 -0.0035342618 -0.006577577
-0.010368542 -0.0035384658 -0.0065036179
0.010360175 -0.0034154116 -0.0065169735
0.014999994 -0.0034836694 -0.0065772855
-0.014999992 -0.0025150329 -0.0064977561
-0.010368539 -0.0026923048 -0.0065036174
0.010360845 -0.002552663 -0.0065158396
0.014999992 -0.0025410971 -0.00649925
-0.014999995 -0.0015335286 -0.0065760631
-0.010368205 -0.0016111134 -0.006504389
0.01035498 -0.0015620153 -0.0065241545
0.014999993 -0.0015435457 -0.0066147251
-0.014999992 -0.00051252812 -0.0064747776
-0.010387057 -0.00039626303 -0.0064749932
0.010365034 -0.0004192488 -0.006507698
0.014999992 -0.00050826371 -0.0064746933
-0.014999994 0.00048555629 -0.0065348074
-0.010385448 0.00066465547 -0.0064775981
0.010370159 0.00061265414 -0.0065008947
0.014999995 0.00046586027 -0.0065540546
-0.014999992 0.0015026256 -0.006472779
-0.010384702 0.0015025164 -0.0064786817
0.010369526 0.0014901495 -0.0065019662
0.014999992 0.0014708015 -0.0064706896
-0.014999993 0.002498715 -0.0065092612
-0.010359081 0.0024143055 -0.0065187369
0.01036733 0.0023920382 -0.0065063401
0.014999993 0.0025239626 -0.0064895633
-0.014999995 0.0035220557 -0.0065445262
-0.010403475 0.0034828146 -0.0064494191
0.010369574 0.0034775632 -0.0065015922
0.014999993 0.0035166992 -0.0064772475
-0.014986296 0.0044532232 -0.0065404084
-0.010316083 0.0043407776 -0.0063934792
-0.009474311 0.0045000012 -0.0064940327
-0.0084617231 0.0045000012 -0.0065072263
-0.0076445951 0.0046111126 -0.0065550073
0.0076488974 0.0045980401 -0.0065911538
0.0084873205 0.0045000012 -0.0065061813
0.0094633885 0.0045000012 -0.0064657261
0.010319181 0.0043186834 -0.0064459322
0.014966883 0.004751741 -0.0066652829
0.015 0.0042425096 -0.0064585586
-0.014665917 0.0055329734 -0.0066048871
-0.0075680655 0.0054960777 -0.0065163388
0.0075680655 0.0054960786 -0.0065163393
0.014665895 0.0055329562 -0.0066048885
-0.014161069 0.006108447 -0.0066716
-0.013508533 0.0063979402 -0.0065957904
-0.012528609 0.0065000011 -0.0065144552
-0.011452254 0.0065000015 -0.0064773401
-0.010519826 0.0065000011 -0.0065379557
-0.0095078386 0.006500002 -0.0065183407
-0.0084940959 0.006500002 -0.0064739394
-0.0076463013 0.0063916668 -0.0066166343
0.0076588625 0.0063844463 -0.0066047255
0.0085323993 0.0065000015 -0.0064531765
0.0095432941 0.0065000015 -0.0064804237
0.010519826 0.0065000011 -0.0065379553
0.011487318 0.006500002 -0.006470961
0.012534924 0.0065000015 -0.0065249619
0.013508586 0.0063979169 -0.0065992367
0.014161067 0.006108447 -0.0066716
-0.013424411 -0.0062115984 -0.0054554553
-0.012524538 -0.0064844149 -0.0054950779
-0.011441724 -0.0064536291 -0.0054551107
-0.010863615 -0.0062985355 -0.005737531
0.010857408 -0.0062951767 -0.0057497905
0.011433427 -0.0064480458 -0.005445973
0.012524539 -0.0064844126 -0.0054950947
0.01343591 -0.0062128557 -0.0054212105
-0.014594055 -0.005522605 -0.0054975376
-0.01388495 -0.0059175706 -0.0056746854
-0.011076741 -0.0054796385 -0.0052205063
-0.010844754 -0.005487639 -0.0056825406
0.010842515 -0.0054611131 -0.005687051
0.0110854 -0.0054962304 -0.0052019996
0.013856286 -0.0059291231 -0.0056975442
0.01448697 -0.0056270817 -0.0055131344
0.015000001 -0.0051250807 -0.0055079404
-0.014999993 -0.0045251455 -0.0055050137
-0.011088671 -0.0044026957 -0.0051958757
-0.010836145 -0.004397436 -0.0056999526
0.010841087 -0.004384615 -0.0056898855
0.011092134 -0.004412821 -0.0051887743
0.014999993 -0.0045247357 -0.0055072829
-0.014999993 -0.0034706614 -0.0055132988
-0.011082592 -0.0034973319 -0.0052085365
-0.01084263 -0.003451498 -0.0056867944
0.010841085 -0.0035384651 -0.005689885
0.01108734 -0.003415517 -0.0051981094
0.014999993 -0.0034614389 -0.0055026198
-0.014999993 -0.0024898439 -0.005497227
-0.011082592 -0.0026394208 -0.0052085365
-0.01084363 -0.00254893 -0.0056847888
0.010841086 -0.0026923048 -0.005689885
0.011085801 -0.0024825763 -0.0052011921
0.014999993 -0.002488585 -0.0055061257
-0.014999993 -0.0014651604 -0.0054629575
-0.011079693 -0.0015931396 -0.0052146087
-0.010843979 -0.0015503939 -0.0056834035
0.010839531 -0.001613464 -0.005692868
0.011102987 -0.0014952706 -0.0051657166
0.014999993 -0.0014542048 -0.005478567
-0.014999992 -0.00045595827 -0.0055054743
-0.011076742 -0.00040686311 -0.0052205059
-0.010829596 -0.00049409881 -0.0057120826
0.010830823 -0.00042545135 -0.0057102838
0.011097931 -0.00047567429 -0.0051764124
0.014999992 -0.00045513877 -0.0055494648
-0.014999995 0.00048072552 -0.0055431607
-0.011089874 0.00062179478 -0.0051938994
-0.01084108 0.00044984248 -0.0056897732
0.010838402 0.0005846828 -0.0056951367
0.011092743 0.0004553062 -0.0051871641
0.014999995 0.00047123898 -0.0055118571
-0.014999993 0.0014271912 -0.0054616123
-0.011088056 0.0014358993 -0.005197545
-0.010841079 0.0013516638 -0.0056897732
0.010839453 0.0014271268 -0.0056930268
0.011092743 0.0013543444 -0.0051871645
0.014999992 0.0014127702 -0.0054871361
-0.014999992 0.0025087781 -0.0055269185
-0.011080586 0.0024613964 -0.0052125058
-0.010849184 0.0024469926 -0.0056741829
0.010856804 0.0024494871 -0.0056588994
0.011087639 0.002433093 -0.0051978775
0.014999993 0.0024872581 -0.0055320603
-0.014999993 0.0035185535 -0.005544526
-0.011096673 0.0035699031 -0.0051795496
-0.010828743 0.0035352069 -0.0057134419
0.010824105 0.0035291712 -0.0057229847
0.01109727 0.0034947407 -0.0051780059
0.014999995 0.0035118223 -0.0054852436
-0.014980202 0.0045462372 -0.0055553652
-0.011089901 0.0041991421 -0.0051934957
-0.010542169 0.004431624 -0.0054910393
-0.0094956383 0.0045000012 -0.0055052442
-0.0085210949 0.0045876205 -0.0055502332
0.008487015 0.0046159425 -0.0055563925
0.0095212534 0.0045000012 -0.0054567084
0.010579349 0.0044155312 -0.0055375574
0.011082685 0.0041944403 -0.0052080592
0.014967295 0.0047485894 -0.0055970228
0.015000002 0.0042359708 -0.0054979464
-0.014667097 0.005528965 -0.0054860804
-0.0083282823 0.0055044442 -0.0055165663
0.0083349068 0.0055138888 -0.0055069569
0.01466702 0.0055289078 -0.0054860814
-0.014155317 0.0061128605 -0.0056291646
-0.013508802 0.0063989367 -0.0054585799
-0.012508932 0.006500002 -0.0054424144
-0.011540812 0.006500002 -0.0054651001
-0.010459097 0.006500002 -0.0055058072
-0.00948436 0.006500002 -0.0055164793
-0.0085199177 0.0064207227 -0.0055422918
0.0085189398 0.0064122826 -0.0055356594
0.00948436 0.006500002 -0.0055164788
0.010504836 0.006500002 -0.0055050706
0.011538952 0.0065000011 -0.0055142543
0.012534942 0.006500002 -0.0054163798
0.013508995 0.0063988576 -0.005470641
0.014155317 0.0061128605 -0.0056291609
-0.014150826 -0.0060339705 -0.0043411651
-0.01352705 -0.006323339 -0.0045275851
-0.012494282 -0.0065000011 -0.0045162365
-0.011560011 -0.0063717347 -0.0045364914
0.011563832 -0.0063791238 -0.0045272675
0.01249428 -0.0065000011 -0.0045162365
0.013527048 -0.0063232589 -0.0045280578
0.014159052 -0.0060317079 -0.0043262774
-0.01475841 -0.0055235662 -0.004508215
-0.0114007 -0.0055402443 -0.0044560316
0.011382133 -0.0054828166 -0.0045029256
0.014572022 -0.0057578185 -0.0045873295
0.014999996 -0.0052024596 -0.0044816993
-0.014999996 -0.0044623013 -0.0044677206
-0.011371221 -0.0044428166 -0.0045310403
0.011388362 -0.0043846141 -0.0044889157
0.014999996 -0.0045163957 -0.0044995644
-0.014999992 -0.003553523 -0.004502533
-0.011384263 -0.0033587678 -0.0044976817
0.011383835 -0.003475297 -0.0044993781
0.014999991 -0.0035342795 -0.0044728899
-0.014999992 -0.0025072154 -0.0045016524
-0.011378866 -0.0024705839 -0.0045120949
0.011383302 -0.0025938815 -0.0045006732
0.014999993 -0.0024835214 -0.0044947723
-0.014999992 -0.0015360579 -0.0044919695
-0.01138233 -0.001524278 -0.0045049288
0.011380769 -0.0015801563 -0.0045058927
0.014999993 -0.0015464885 -0.0045298333
-0.014999993 -0.00049982051 -0.0044765463
-0.011378218 -0.00044975919 -0.0045153201
0.011386163 -0.00044882507 -0.004491712
0.014999992 -0.00050544366 -0.0045147236
-0.014999994 0.00050063198 -0.0044570616
-0.01137458 0.00054320239 -0.0045228931
0.011388169 0.00054344733 -0.0044883923
0.014999995 0.00050731341 -0.0045155669
-0.014999992 0.0014659255 -0.0044884193
-0.011374047 0.0014378352 -0.0045241881
0.011388738 0.001408405 -0.0044870107
0.014999993 0.0014975673 -0.0045201899
-0.014999992 0.0025187414 -0.0044839885
-0.011385047 0.0024112968 -0.0044953697
0.011375259 0.0024551293 -0.0045216782
0.014999992 0.0025187919 -0.0045324643
-0.014999993 0.0035048248 -0.0044936156
-0.011367073 0.0034859574 -0.0045426381
0.011398813 0.0035369967 -0.004460807
0.014999993 0.00350485 -0.0045179646
-0.014980802 0.0045179278 -0.0044332505
-0.011283705 0.004335471 -0.0044782562
-0.010491503 0.0045000012 -0.0045255991
-0.0094713774 0.0045207427 -0.0044660489
-0.0088410042 0.004666667 -0.0047096545
0.0088554984 0.0046244445 -0.0047360789
0.0094616124 0.0045248074 -0.004454975
0.010499949 0.0045000012 -0.0045266286
0.011292456 0.0043295929 -0.0044554686
0.01496353 0.0047772508 -0.0043725502
0.014999999 0.0042297938 -0.0045073032
-0.014637191 0.0055690166 -0.0043422948
-0.0090897772 0.0054866672 -0.0041500921
-0.0088307736 0.0055 -0.0046756188
0.0088307746 0.0054866672 -0.0046756198
0.0090897772 0.0055133351 -0.0041500921
0.014693073 0.0054780594 -0.0043422938
-0.014155317 0.0061128601 -0.0043782401
-0.01350907 0.0063999351 -0.0043213814
-0.012499315 0.0065000006 -0.0044477321
